ply
format ascii 1.0
comment VCGLIB generated
element vertex 730
property float x
property float y
property float z
property float nx
property float ny
property float nz
element face 0
property list uchar int vertex_indices
end_header
-0.06062339 0.1888122 -0.695053 0.4138935 0.7694713 -0.4864218 
0.2082789 -0.04780462 0.6849806 0.9284647 -0.1081323 0.355332 
-0.04174604 0.1710777 -0.5239839 0.9627153 -0.1485019 0.2261115 
-0.08031911 0.1637842 -0.5447721 0.9463968 -0.3174886 -0.05944885 
-0.08193889 0.1632153 -0.5406473 0.7318957 -0.6676019 -0.1365149 
-0.1650472 0.1950465 -0.5666113 -0.9378623 0.3416192 0.06091544 
-0.05614245 0.1779685 -0.579237 0.549744 -0.834181 0.043859 
-0.09600639 -0.07699662 0.8679888 -0.5851281 -0.7232001 0.3668878 
-0.01366533 0.00715177 -0.02637996 -0.161943 0.958223 -0.2357609 
-0.07392377 0.03336013 -0.6431 0.03210717 -0.4290567 0.9027067 
0.01470323 0.00599746 0.2990675 -0.692177 0.7119094 0.1186424 
0.01914368 0.00910279 0.2986396 -0.4988437 0.8601662 0.1061559 
-0.1513248 0.2220442 -0.5108638 -0.7547784 0.6530746 -0.06167004 
-0.1542297 0.218792 -0.5068114 -0.8040823 0.5874413 -0.09145732 
-0.06718966 -0.06744678 -0.6390079 -0.4841838 -0.1747873 0.8573304 
-0.082491 0.07938592 -0.6135243 -0.1634754 -0.6419798 0.7490914 
0.00923848 -0.00067267 0.2273638 -0.8496638 -0.5216516 -0.07714393 
0.0100594 -0.0019291 0.2304718 -0.7600912 -0.6497919 -0.005660166 
0.01110755 -0.00189496 0.2236458 -0.8244935 -0.5545444 -0.1126545 
0.00767015 -0.07503322 0.5213441 -0.1770231 0.9683942 0.1757143 
0.00830598 -0.07351214 0.5149551 0.5093925 0.7893395 0.3427278 
0.05880262 0.01883973 0.0048353 -0.6308806 0.6820053 0.3699437 
-0.08515204 -0.00053244 -0.6879311 0.1208483 -0.499363 0.8579233 
0.01995265 -0.02248765 0.3313651 -0.07627212 -0.5291049 -0.8451217 
-0.05931732 0.06436758 -0.6697284 0.8272735 -0.1645314 0.5371667 
-0.06086036 0.05907123 -0.6699632 0.5901074 0.07367405 0.8039562 
0.04901987 -0.1193409 -0.5734373 0.998012 0.05678324 0.02734503 
0.08183691 -0.04752941 0.2922967 0.9487554 -0.3131948 -0.04209825 
-0.07235524 0.03626894 -0.6418543 0.07946667 -0.440428 0.8942642 
0.00972946 0.02833229 0.1028087 -0.3253136 0.912698 0.247292 
-0.03566367 -0.1219923 -0.6133238 -0.9800153 -0.1988886 -0.003665692 
-0.03595349 -0.1235897 -0.6073677 -0.977579 -0.1515852 -0.1461549 
-0.1206249 0.1227972 -0.4723028 0.0205308 -0.9973999 0.06907949 
0.0139423 -0.03509802 -0.1225629 0.01424896 -0.9630905 -0.2688006 
-0.0439022 0.06455646 -0.7065303 -0.3689575 0.482111 -0.7946316 
0.08745549 -0.1433858 0.5812517 -0.07272591 -0.718066 -0.6921648 
-0.1466397 0.1169828 -0.5769431 -0.6466454 -0.7157131 0.2638265 
-0.1628044 0.08215446 -0.7214025 -0.9318961 0.1079315 -0.3462954 
-0.1628852 0.08681669 -0.7196848 -0.9330392 0.1264512 -0.3368205 
-0.01130414 -0.00963856 0.1176539 -0.9925584 0.1132013 -0.0448722 
0.04443668 0.00252221 0.08235084 0.7359073 -0.5264817 0.4257434 
-0.01899229 -0.07480103 0.443226 -0.9827015 -0.1130186 -0.1467122 
0.01957547 0.01819395 0.1407768 -0.7318926 -0.5937768 -0.3343089 
-0.08964191 0.02614667 -0.6803455 0.1733675 0.6295133 0.7574013 
-0.03913898 0.1379261 -0.2671776 0.9051129 0.4246998 0.02002114 
-0.04261678 0.1426481 -0.2618656 0.7918189 0.5944453 0.140206 
0.04574632 0.00063597 0.7226863 0.4207379 0.1413558 0.8961016 
0.04699336 -0.00456411 0.7223638 0.3083639 -0.0118155 0.9511951 
-0.1021654 0.1556549 -0.4330032 -0.972078 -0.05181102 0.2288668 
-0.1023701 0.1571715 -0.4374306 0.6051013 0.4483715 0.657887 
-0.1012106 0.1599093 -0.4339562 0.4819275 -0.5594686 0.6743447 
0.00573015 -0.07067789 0.4664905 0.3007497 0.6233099 0.7218271 
0.07484912 -0.0437592 -0.02615915 0.5700194 -0.8211295 -0.02871112 
-0.1255181 0.2129719 -0.657553 -0.3923229 0.8103447 -0.435229 
-0.1295848 0.2122565 -0.6549477 -0.4557762 0.79002 -0.4100443 
-0.00973521 -0.02561579 0.1589858 -0.9799095 -0.1808966 0.08398657 
-0.03370751 -0.1021546 -0.599404 -0.9335732 0.3408726 0.1106658 
-0.06448056 0.1581088 -0.6225723 0.5945017 0.07580402 0.8005133 
-0.03206629 -0.1549533 -0.5767775 -0.733339 -0.6033556 -0.3133304 
-0.1090591 -0.06243695 0.7617934 -0.9246151 0.1854172 -0.3327274 
-0.1083232 -0.05883723 0.7626671 -0.903077 0.3081169 -0.2991922 
0.03386983 0.03067765 -0.1049989 -0.9347528 0.2266642 0.2736068 
-0.05891118 0.03459298 -0.6470094 0.4944488 -0.2530848 0.8315458 
-0.05266208 -0.02578441 -0.7423227 0.6654201 -0.510531 -0.5445863 
0.04922902 -0.01280061 0.1087424 0.7776005 -0.242663 -0.5800449 
0.05998057 -0.02279126 0.6999003 -0.4492138 -0.6544315 -0.6082159 
0.06373623 -0.02371875 0.6968256 -0.7425541 -0.6140518 -0.2674958 
0.1551978 -0.0184097 0.7869626 -0.9784213 -0.0209996 0.20555 
0.04386796 -0.04378313 0.1462869 -0.7467331 0.6650678 0.008633563 
0.0866837 -0.00982356 0.177548 0.9963855 0.08489192 -0.003056005 
0.0863404 -0.00816497 0.1712759 0.9968187 0.07439903 -0.02858578 
-0.06121382 0.06710593 -0.6246314 0.351738 -0.5505125 0.7571106 
0.2511211 -0.1071064 0.8402476 0.2395739 -0.3072731 -0.920971 
0.04433072 -0.1093536 -0.5571631 0.8969036 0.4083264 0.1698042 
0.02561242 -0.03840568 0.0534766 -0.9446169 0.1979485 0.2617542 
0.05004818 -0.05211471 0.2763719 -0.95179 -0.003653173 0.3067288 
0.04940293 -0.05530659 0.2719544 -0.9965111 -0.08345933 0.0003929277 
-0.1353796 0.08336028 -0.2412794 -0.8441684 -0.5264695 0.1010426 
-0.1355767 0.08288265 -0.2456227 -0.848915 -0.5211384 0.0880796 
-0.00692408 -0.03277006 0.4660993 -0.5639822 0.8239678 0.05478316 
-0.00687474 -0.03248214 0.4619896 -0.5489686 0.8343251 0.05034918 
0.0173661 0.00844501 0.6933179 -0.5342799 -0.830166 0.1592778 
-0.01921423 0.0291919 -0.1058477 0.2842984 0.9209743 0.2664221 
-0.06255596 -0.06196873 0.8924911 0.8920378 -0.4519129 -0.006585449 
-0.09717629 0.1533471 -0.3562412 0.8628934 -0.1406334 0.4854249 
0.01543503 -0.08381964 0.3357191 -0.3831213 -0.8765523 -0.2913319 
-0.04950465 0.06448226 -0.2546347 0.5065515 -0.4877242 -0.7110068 
0.01273561 0.02999792 -0.1219355 -0.5610045 0.8174346 0.1306704 
0.07940005 -0.08877276 0.6575719 0.4453182 -0.8528966 0.2725053 
-0.1463661 0.0673911 -0.6419505 -0.4437935 -0.3956667 0.8040493 
-0.1403345 0.0672026 -0.6391919 -0.315599 -0.4359815 0.8428034 
-0.06359639 0.1027737 -0.3114462 0.6677341 -0.5664813 -0.482939 
-0.04593983 -0.1302504 -0.5618187 -0.8880434 -0.2188996 0.4043043 
-0.04442802 -0.1293184 -0.5684553 -0.9968319 -0.01523841 -0.07806434 
-0.063706 0.1982161 -0.5303225 -0.4039377 0.7466007 -0.5286036 
-0.07989377 0.1345038 -0.598963 0.8586465 -0.3436771 0.3802794 
-0.0830339 0.1311104 -0.597688 0.5009712 -0.604407 0.6194515 
-0.1071855 0.06253994 -0.6460019 0.7004063 -0.4627673 0.5433944 
-0.1045792 0.06319206 -0.6503328 0.7854373 -0.2090645 0.5825636 
-0.07971221 -0.04158787 -0.7847153 -0.9606751 0.1510537 -0.2329939 
-0.08200449 -0.04069582 -0.7743123 -0.8880101 0.2303951 -0.3979398 
-0.04254676 0.09203938 -0.128081 0.05322984 0.7759706 0.6285191 
0.0407149 0.04353044 -0.1005433 -0.5941281 0.6228828 0.5089487 
0.0379773 0.03999797 -0.09829917 -0.2839456 0.8439531 0.4551022 
0.04602028 -0.1146749 -0.5544475 0.9309679 0.3297529 0.1567224 
-0.164957 0.1535665 -0.5637024 -0.951072 -0.287699 0.1126553 
-0.16618 0.1565674 -0.5672831 -0.9688641 -0.2287749 0.09467985 
0.1785424 -0.07640786 0.6329621 -0.8867172 0.2379448 0.3963773 
0.03475138 0.06890304 -0.1099485 0.5946474 0.8037044 -0.02130176 
0.08500864 -0.03163035 0.1940737 0.7535144 -0.6384314 -0.156912 
0.0488929 -0.01591843 0.1219905 0.4969029 0.04822898 -0.866465 
-0.04057182 -0.07003473 -0.623835 -0.4842734 0.2600738 0.8353686 
-0.04394923 -0.07404372 -0.6250452 -0.531533 0.1574696 0.8322716 
-0.03914146 -0.04405889 -0.8036205 0.05848862 -0.4109154 -0.9097955 
-0.1190155 0.1262035 -0.4167801 0.2579952 -0.961755 -0.09200951 
-0.1241378 0.1255392 -0.4206784 0.2234638 -0.9718098 -0.07516402 
-0.1192857 0.1267055 -0.4222291 0.2518539 -0.9655856 -0.0649171 
-0.07955808 0.1309383 -0.4594836 0.471467 -0.8801118 -0.05587705 
-0.0807169 0.1299378 -0.4539284 0.4844881 -0.8725307 -0.06294068 
0.08311007 -0.0863521 0.658806 0.4822726 -0.8272657 0.2881747 
-0.09367916 0.1546812 -0.5249577 0.3770871 -0.9235352 -0.06991483 
0.00277619 -0.017863 0.03783606 -0.7181626 -0.3722632 -0.5879309 
0.06548488 -0.02248875 0.6803147 -0.4491437 -0.08006995 -0.8898645 
0.00685306 -0.07745909 0.5788348 -0.5812119 -0.740236 0.3379991 
0.0099325 -0.07842904 0.5758146 0.548969 -0.8280251 0.1140506 
0.00248236 -0.077741 0.5782682 -0.1475941 -0.8755141 0.4600989 
-0.08969077 0.100527 -0.2817355 -0.8649265 0.4565134 0.2085613 
0.03730132 -0.04116125 -0.094337 0.1534726 -0.9339572 -0.322754 
-0.176938 0.1698557 -0.4148502 -0.9973646 -0.02460523 0.06825212 
-0.1766521 0.1639403 -0.4151579 -0.9959143 -0.0708665 0.05597196 
-0.176637 0.1662181 -0.4119684 -0.9970093 -0.05154918 0.05757713 
0.06374358 -0.03720036 0.7107436 -0.3429426 -0.556863 0.7565013 
0.08147202 -0.03410776 0.1522434 0.9257791 -0.3604596 -0.1140259 
-0.1054882 0.1228362 -0.5612518 0.85568 -0.498584 0.1386573 
-0.09324941 0.1479321 -0.3189837 -0.9849586 0.1634209 0.05612654 
0.1912144 -0.07127733 0.6210279 0.3004048 0.3317072 -0.8942747 
-0.1177094 0.1144586 -0.3658114 0.5953742 -0.7848241 -0.1719904 
0.02833883 -0.05265608 0.3863587 -0.8288344 -0.430399 -0.3574778 
-0.105896 -0.08328101 0.9531892 -0.7997197 -0.1461861 -0.5823042 
-0.02528749 -0.1210649 -0.6512381 -0.4382049 -0.792561 -0.424056 
0.1773312 -0.03475308 0.7563649 0.08319923 -0.9960507 0.031 
0.1750004 -0.035135 0.7617213 0.07003037 -0.9967054 -0.0409157 
-0.02988083 0.06002113 -0.1092687 0.9668843 0.03071295 -0.2533604 
-0.02868303 0.06197108 -0.105691 0.9942098 0.06700714 0.08400588 
-0.03239286 0.122471 -0.699867 0.9737235 -0.126768 -0.1891888 
-0.0164798 -0.02754873 0.7078741 0.2181451 -0.9445837 -0.2453047 
-0.01349607 -0.02564749 0.7033165 0.155529 -0.9394428 -0.3053817 
-0.01727437 -0.01953889 0.6906227 -0.05052712 -0.7711288 -0.6346712 
0.1573214 -0.1202512 0.6408625 -0.5536661 0.8301114 0.06609765 
0.1540243 -0.122478 0.6358324 -0.5307925 0.7857577 0.3175595 
-0.05740051 0.1155308 -0.670172 0.9192526 -0.1661452 0.3568899 
-0.04340386 0.00480447 -0.1814431 -0.2920699 -0.846543 -0.4450396 
-0.03968649 0.00679801 -0.18684 -0.2387216 -0.8353751 -0.4951369 
-0.03822954 0.00415511 -0.1831304 -0.2104653 -0.8332571 -0.5112601 
-0.04461109 0.00801185 -0.1867649 -0.2408781 -0.8542922 -0.4606113 
0.04512028 0.0148304 0.0426123 -0.7570351 0.2764936 -0.5919874 
0.04491364 0.01130361 0.04287587 -0.8891823 -0.08548879 0.449496 
0.04553337 0.01394591 0.0390824 -0.837845 0.2837902 -0.4663464 
-0.08757644 0.02930507 -0.1876016 -0.652518 -0.7566643 0.04098087 
0.04931137 -0.04053527 0.2458143 -0.9930158 -0.03582039 -0.1124123 
0.04630856 -0.00334607 -0.02578569 0.3096976 0.4008891 0.8621922 
-0.0081175 -0.00180376 0.07591104 -0.9849538 0.1680785 -0.04019705 
-0.09868974 0.1383771 -0.5325266 0.9108281 -0.2862037 -0.2974553 
0.05054869 -0.00862205 0.7210012 0.3089772 -0.05669108 0.9493784 
0.04109953 0.04477999 0.09545194 -0.06327851 0.984182 0.1654741 
-0.038258 0.04869188 -0.1288607 0.9312943 0.3599818 -0.05571482 
-0.03624805 0.04943657 -0.1229066 0.712182 -0.1461106 -0.6866211 
-0.0355057 0.04398962 -0.1247011 0.7071205 0.5751858 -0.4112685 
0.1906966 -0.00140521 0.8065574 0.2935761 0.888822 0.3518645 
0.04446511 -0.1422298 -0.5722377 0.8536961 -0.4563191 -0.25095 
0.04851499 -0.05898743 0.2680838 0.9143769 -0.391869 -0.1017524 
-0.0203356 -0.02699645 -0.127152 -0.4074289 -0.9005589 -0.1516425 
0.04336488 0.00315033 0.05089774 0.8003895 -0.01116452 -0.5993763 
-0.05850939 0.223375 -0.5981636 0.6035119 0.7941692 -0.07119488 
0.01234541 -0.00428799 0.268955 -0.6392844 -0.7674515 -0.04830899 
-0.07062186 0.1313157 -0.4060901 0.61347 -0.7735238 -0.1591087 
-0.0706099 0.1299308 -0.4001654 0.6125152 -0.7724947 -0.167562 
-0.1736513 0.1493411 -0.4456382 -0.9459944 -0.3007232 -0.121079 
0.01137285 0.01059158 -0.09892818 -0.53298 0.7052403 0.4675131 
-0.08258097 0.1859377 -0.7100415 0.1391934 0.7806876 -0.6092227 
-0.07824911 0.1875143 -0.7068607 0.1791525 0.7905948 -0.5855461 
-0.07770227 0.1840844 -0.7112414 0.1776614 0.7673231 -0.6161588 
-0.08266364 0.1890497 -0.7058923 0.1251675 0.7990752 -0.5880576 
-0.161546 0.1864053 -0.636427 -0.8931672 0.3965451 -0.212142 
-0.08659584 0.1218515 -0.2959834 -0.9957414 0.09218201 -0.001279861 
0.09982488 -0.1272901 0.6029114 0.6180801 0.1846777 -0.7641146 
-0.01756844 0.05767056 -0.09726629 -0.7083875 0.5075223 0.4905185 
-0.04728231 0.1891565 -0.4971945 0.9840122 0.1582487 0.08171585 
0.08098628 -0.00681948 0.2206684 0.9582282 0.2470939 0.1440257 
0.08048251 -0.00260665 0.2164066 0.919959 0.3422446 0.1911654 
0.0793916 -0.00252227 0.2213709 0.9138865 0.3613795 0.184977 
0.02250399 -0.01696263 -0.1538977 0.3540528 -0.7317866 -0.5823531 
0.02199109 -0.01399156 -0.1578909 0.3448947 -0.7249892 -0.5961865 
0.00585786 -0.08066741 0.343152 -0.6137627 -0.7420856 -0.269452 
0.102546 -0.0353245 0.6727092 0.9977773 0.06154661 0.02554222 
0.1018667 -0.03072257 0.6710519 0.9825662 0.1855639 -0.01138685 
0.1018895 -0.03210701 0.6772895 0.988274 0.1043338 0.1114848 
0.2128009 -0.07583942 0.6465659 0.9725563 -0.1455203 -0.1815441 
-0.05681669 0.1561353 -0.6329125 -0.2071117 -0.7776268 0.5936339 
-0.05608455 0.1585978 -0.6293488 0.1413912 -0.8276767 0.5431022 
0.04505735 0.04125917 0.01929965 0.6859012 0.6877913 0.2376612 
-0.1562016 0.1900194 -0.6483362 -0.8112046 0.5095154 -0.2869515 
-0.05874826 0.1823551 -0.5687593 0.5105644 -0.8589967 -0.03806065 
-0.1088948 0.1128248 -0.3182565 -0.8077809 0.5774892 0.1183058 
0.00939558 0.02761752 0.1048184 -0.3578345 0.8996583 0.2501389 
-0.05297295 0.0930579 -0.6866096 0.7637019 0.3895135 -0.5148191 
0.1608939 -0.1476187 0.6208344 0.440877 -0.8804301 -0.1745576 
-0.1628722 0.1681027 -0.3108556 -0.9181974 0.3512767 0.1830802 
0.1827928 -0.08137113 0.6611907 0.7157223 -0.6011785 0.3554237 
-0.04117351 -0.1133259 -0.6446687 -0.5999712 -0.7935868 -0.1012651 
0.1240862 -0.1339903 0.6352996 0.3698258 -0.9107433 -0.1837813 
0.04624463 -0.01364221 -0.00332119 0.6490636 -0.6807241 -0.3396044 
-0.06825268 0.1289456 -0.6439742 0.7112845 -0.5499202 0.4377925 
-0.06728918 0.1273345 -0.6499079 0.9354434 -0.2153065 0.2803371 
0.0727229 -0.09265126 0.6391456 0.3062145 -0.933459 -0.1867808 
-0.06773991 0.1729311 -0.3017163 0.1448896 0.9295958 0.3389081 
-0.05514053 0.1811833 -0.3748645 0.9549697 0.2862394 0.07810125 
-0.05587273 0.1821992 -0.3699249 0.9344454 0.3430331 0.09560414 
-0.09422954 0.1401347 -0.5620215 0.8270231 -0.5084308 0.2398562 
-0.07449022 0.1437854 -0.2464852 -0.4536862 0.8036318 0.3851556 
-0.1456169 0.2270096 -0.5256903 -0.7084493 0.7043808 -0.04412965 
-0.165603 0.146032 -0.681182 -0.9364297 0.2800411 -0.2113679 
-0.1645849 0.1457456 -0.6858493 -0.9240492 0.2943794 -0.2438728 
0.0108184 -0.1503277 -0.6059764 0.285758 -0.8757684 -0.3890658 
0.05067259 -0.09208276 -0.6481004 0.8869808 0.4352948 0.1542191 
0.00809523 -0.02429596 0.6928589 -0.3081277 -0.9333053 -0.1843874 
0.05053512 -0.05159497 0.2410361 -0.9057069 -0.4236317 -0.01520295 
-0.02592375 -0.054182 -0.6234245 -0.2320126 0.3795323 0.8956146 
-0.02233455 -0.05689415 -0.6209485 -0.2549126 0.4976261 0.8290886 
-0.0077267 -0.04165337 0.5266581 -0.5730649 0.7930321 0.2066322 
-0.0784783 0.1167193 -0.6139548 0.1701613 -0.6695902 -0.7229759 
-0.03991191 -0.0062975 0.6870624 -0.3797447 -0.2256329 -0.8971532 
0.00232345 -0.01079821 -0.00221515 0.6934655 0.6852783 0.2224844 
0.01619683 -0.08414686 -0.5482242 0.3633028 0.9028305 0.2300179 
0.0201297 -0.08635929 -0.5466335 0.454831 0.8348128 0.3101879 
0.05186254 0.02124816 0.03950498 -0.9971434 -0.04879498 -0.05765582 
0.0013227 0.03278804 0.6883156 -0.04251588 0.7754996 -0.6299149 
-0.03694916 0.1695172 -0.6132212 0.355191 -0.8042614 0.4764484 
0.04101555 -0.1468729 -0.5731279 0.7280228 -0.6018754 -0.3282207 
0.04289274 -0.1469115 -0.568148 0.7861167 -0.5637283 -0.2534384 
0.03067451 -0.06530939 -0.6295356 0.682426 0.7240689 0.1000946 
-0.1365584 0.00533805 -0.746944 -0.6904125 -0.2403108 -0.6823353 
-0.1348995 0.00786931 -0.7494527 -0.6871612 -0.2303079 -0.6890339 
0.08671139 0.00276072 0.1267564 0.9565095 0.2229851 0.1880619 
0.1553009 -0.1155435 0.6241571 -0.6309819 0.3739724 0.6797106 
-0.04478653 -0.09636619 -0.6253569 -0.8432524 -0.1817632 0.5058534 
-0.03210674 0.1355401 -0.5825929 0.881428 -0.3510895 0.3159444 
-0.0302978 0.1340794 -0.5894423 0.9104423 -0.3007236 0.2840072 
-0.0346857 0.05079492 -0.1185736 0.8203945 0.2104891 0.5316457 
-0.00573667 -0.03925139 0.3840567 -0.748709 -0.5793078 -0.322238 
-0.1212115 0.1113036 -0.3595453 0.4230884 -0.8862428 -0.1885997 
-0.03330718 0.07000931 -0.6536222 0.8271123 -0.3636413 0.4285444 
-0.0043087 -0.03858092 0.229322 -0.953146 -0.2834227 0.1057562 
-0.05379458 0.1989199 -0.6683124 0.5477037 0.7577285 -0.3547792 
0.06949728 -0.06954432 0.3144746 0.6089633 -0.7867225 -0.101151 
0.0487374 0.01941677 0.2270581 0.1608268 0.9588638 0.2339124 
0.00382644 0.01396365 0.6938001 -0.2334016 -0.9723172 0.01109239 
-0.00038927 0.0149367 0.6961111 -0.3683737 -0.9278245 -0.05867322 
0.2047746 -0.07649175 0.8394535 -0.7770554 -0.6228746 -0.09062145 
0.01266907 -0.04266038 0.00938807 -0.479364 -0.8680924 0.1289411 
-0.1579349 0.2093294 -0.3856556 -0.6900626 0.6788377 0.2509842 
-0.09846132 0.05818346 -0.2527016 -0.1080122 -0.81033 -0.5759329 
-0.04534947 0.1441616 -0.2942817 0.9475288 0.284888 -0.1450105 
-0.04665096 0.1441761 -0.2993723 0.9413807 0.2499458 -0.2265602 
-0.1388991 0.08989262 -0.2414818 -0.8932416 -0.4212711 0.1570041 
0.02309549 -0.04948874 -0.06636637 -0.1507823 -0.9600165 -0.2358665 
-0.1072529 0.1138472 -0.5754633 0.845641 -0.507241 0.1661262 
0.04732367 -0.01206884 -0.1384526 0.6320764 -0.5354732 -0.560132 
0.04989809 -0.0078234 -0.1393946 0.6752572 -0.4970572 -0.5449421 
-0.07419275 0.09469982 -0.5975564 0.07667049 -0.7146345 0.6952835 
0.1535992 -0.1451376 0.6421387 0.1754241 -0.8148482 0.5524932 
0.00480383 0.03313482 0.00899923 -0.8921736 0.4474685 -0.06163048 
0.00492496 0.03395087 0.01335524 -0.8908114 0.4502396 -0.06115053 
0.01794932 -0.04519239 0.01045903 -0.3813164 -0.916585 0.1202902 
-0.08001937 0.09194468 -0.3125706 0.3278505 -0.769505 -0.5480659 
0.1550319 -0.01587373 0.7393101 -0.9958453 -0.06438223 -0.06439833 
-0.07112189 -0.00669492 0.7126949 -0.8364686 0.4185362 -0.3537623 
0.064235 -0.1301273 0.5925494 0.3246847 -0.7083552 -0.6267477 
-0.01430704 -0.09605552 0.4824752 -0.761408 -0.6378992 -0.1155103 
0.1865319 -0.06508095 0.6955853 -0.02004552 -0.531834 0.8466114 
0.1840438 -0.06774002 0.6940669 -0.2214844 -0.5103712 0.8309428 
0.1853186 -0.06203609 0.6976516 -0.1575968 -0.5000072 0.851561 
-0.05257757 0.2009868 -0.5491769 0.7842089 -0.4743672 0.39999 
-0.05585947 -0.06761446 -0.7394345 0.9805571 0.1458912 0.1312385 
0.04332864 -0.09145434 0.5812958 0.4011665 0.8460081 -0.3511919 
0.00531533 -0.01653204 -0.1613564 0.1130094 -0.8047419 -0.5827688 
0.02310895 -0.1239872 -0.6779858 -0.178443 -0.8806783 -0.438821 
-0.1377259 0.2327812 -0.4766498 -0.4277015 0.9037776 0.01604649 
-0.1361382 0.2333818 -0.4718044 -0.401767 0.9156183 0.01505163 
-0.06797211 0.1833593 -0.7082096 0.3012772 0.752203 -0.5860227 
0.1399323 -0.1245039 0.6383103 -0.4195743 0.9076818 -0.008434745 
-0.08368861 0.1053768 -0.6181832 -0.1232666 -0.1925006 0.973524 
0.02425594 0.07551656 -0.1357742 0.6866566 0.7216997 -0.0874769 
-0.1201235 0.1204794 -0.5377982 -0.1276927 -0.9727808 0.19337 
0.04935195 -0.01751749 0.1066449 0.9236698 -0.1987377 -0.3276241 
0.04948928 -0.01184259 0.1038359 0.9405273 0.1709414 0.2935772 
-0.07793421 0.1966169 -0.3601971 0.9370915 -0.3328824 -0.1051131 
0.04347221 0.05625432 -0.0504626 0.2501064 0.9622588 0.1072609 
0.04223884 -0.01788481 0.09285937 0.9915292 0.08076189 -0.101722 
-0.09393515 0.166804 -0.7301015 0.06550729 0.5587132 -0.8267698 
-0.0935697 0.1631314 -0.7323941 0.06711171 0.5232349 -0.8495418 
0.03241297 -0.04457479 0.5822793 0.0892885 0.9922905 0.08594858 
0.02792237 -0.04403495 0.5797635 -0.0120417 0.9890189 0.1472979 
0.03659059 -0.00199133 0.7258698 0.255125 -0.2072707 0.9444311 
-0.1274823 0.2380084 -0.5418456 -0.3508654 0.9351309 -0.04923107 
0.01030533 0.03082847 0.7263451 0.3418105 0.8062948 0.482757 
-0.03476741 0.1614996 -0.5558512 0.9735569 -0.006949992 0.2283391 
-0.1653893 0.04873266 -0.6849033 -0.9633873 -0.1980712 0.1807012 
-0.08133583 -0.01386793 -0.6666608 0.2138809 0.97453 0.06742658 
-0.1189998 0.067949 -0.2546638 -0.5079301 -0.8296186 -0.2318191 
0.08318172 -0.0188757 0.2860349 0.980474 0.1965803 -0.005189969 
0.08379978 -0.02162122 0.2897141 0.9785223 0.2060371 0.006546826 
0.0809167 -0.1118595 0.5658887 0.525405 0.02235681 -0.8505585 
-0.1405356 0.1316007 -0.516099 -0.5613852 -0.826703 0.03753475 
-0.06171726 0.1201247 -0.6453221 0.9942576 0.0827129 0.06790011 
0.1784784 0.00117058 0.8026897 -0.1811797 0.8790767 0.440906 
-0.06207399 -0.00831035 -0.6370484 -0.502627 0.08856448 0.8599548 
0.1786741 -0.1038501 0.6082774 0.4668358 0.05887641 -0.8823819 
0.1608057 0.00584687 0.7532376 -0.763976 0.6452447 0.0002904776 
-0.06525098 0.04227608 -0.685718 0.2042041 0.4566685 0.8658837 
-0.06226761 0.04749247 -0.6867786 0.4713111 -0.1925318 0.8606958 
-0.06570939 0.04597866 -0.6831822 -0.4782272 0.5360704 0.6956489 
0.05421992 -0.05346772 0.6378427 -0.1140641 0.9432781 -0.3117946 
0.02696605 0.04892113 0.03135817 0.04253811 0.9735703 0.2243915 
0.1745702 -0.09938969 0.6376658 -0.894204 0.4438699 0.0581275 
-0.03147585 0.0551874 -0.1116344 0.9133161 -0.1862613 -0.3621609 
-0.07210978 -0.06210646 0.7998538 0.8847637 0.4638497 0.04513062 
0.02127228 0.00934421 0.3046044 -0.4334851 0.8925 0.1246378 
0.04203236 -0.1593019 0.08422486 0.5785176 -0.01138326 -0.8155905 
-0.00072385 -0.07348085 0.4886937 -0.3086246 0.8103898 0.4980154 
-0.1645535 0.1773919 -0.5214972 -0.9994301 -0.01104027 -0.03190096 
-0.1645438 0.1772968 -0.5267819 -0.9999595 0.008953659 0.0009614677 
-0.1028428 0.0446467 -0.1994213 -0.7713671 -0.6351798 0.03923614 
-0.02900352 0.136589 -0.6542175 0.501982 0.7566024 -0.4190072 
-0.09561966 0.1319634 -0.340581 -0.7134039 0.6946616 0.09219617 
0.04849765 -0.04929713 0.4904951 0.8326855 0.5535681 -0.014049 
0.04767195 -0.04820885 0.4849809 0.8295866 0.5574307 0.03251373 
0.04053421 0.00187162 0.7247622 0.3663911 0.02929124 0.9299998 
0.01179576 -0.00372879 0.2392934 -0.7117679 -0.7010958 0.0430255 
0.1998791 -0.03329438 0.848082 -0.3101844 0.4406636 0.8423783 
0.1234207 -0.1284454 0.6141137 0.353452 -0.9148047 -0.1954585 
-0.1390992 0.06902257 -0.7560151 -0.6493015 0.07713785 -0.7566091 
-0.141039 0.06417353 -0.7546352 -0.6608859 0.02965031 -0.7499005 
0.02674488 0.00173219 -0.1689687 0.5315219 -0.4778217 -0.6994075 
0.0240495 -0.00308952 -0.1673569 0.4585224 -0.5861619 -0.6679606 
-0.02483041 0.02802186 -0.1322924 -0.04511455 0.9988092 0.01857405 
-0.05970491 0.1453189 -0.4991757 0.7179744 -0.6731207 0.1772604 
0.2029529 -0.00915135 0.7973816 0.8053584 0.5900234 -0.05718682 
0.0455512 -0.0115392 0.1519925 -0.6771045 -0.4992065 -0.5406685 
-0.1217851 0.186417 -0.2655859 -0.2109884 0.777476 0.5924652 
-0.1273798 0.183376 -0.26426 -0.3241111 0.7373371 0.592694 
-0.1230949 0.1820983 -0.2608818 -0.2466525 0.7415271 0.6239392 
0.02974835 -0.08676457 0.4954113 0.7066543 0.7053931 0.05532181 
-0.04510945 0.1219692 -0.6765286 -0.6863992 -0.4902909 -0.5370951 
-0.08798762 0.1238509 -0.4046123 -0.009063389 -0.9695518 -0.2447187 
0.07061615 -0.04798732 0.1365811 0.756648 -0.645987 -0.1009198 
0.01928298 -0.01848974 0.422911 -0.1277912 0.9779468 0.1651956 
-0.04935048 0.07300738 -0.1117133 -0.4055176 0.5155655 0.7548163 
-0.1061933 0.1454106 -0.4749134 -0.9933224 0.02651043 -0.1122849 
0.02353015 0.01429696 0.14181 -0.7772186 -0.6248014 0.07452834 
-0.08821709 0.1990064 -0.4751489 -0.8272886 0.5410255 -0.1512784 
-0.1121868 -0.04544405 -0.7384341 -0.5859293 -0.4943646 -0.6420986 
-0.1090471 -0.04511123 -0.7417091 -0.6126829 -0.4488825 -0.65048 
-0.09704424 0.1502394 -0.5535951 0.7663681 -0.636306 0.08828786 
-0.02974574 0.0797634 -0.138473 0.6883048 -0.1606073 -0.7074192 
-0.00891234 -0.0842644 -0.5426393 -0.3204131 0.2950271 0.9001636 
-0.07894741 -0.02276621 0.7414287 -0.6214491 0.6399332 0.4519807 
-0.1210438 0.01312912 -0.6472222 -0.4170273 0.005903505 0.9088748 
-0.09811547 0.1327155 -0.405739 -0.9867355 -0.1091746 -0.1201416 
0.01671771 -0.104816 0.1727046 0.392784 0.2830823 0.8749772 
0.06357776 -0.07596453 0.4061231 0.8702562 -0.4908089 0.04196162 
0.06557938 -0.07161445 0.4061084 0.9316906 -0.3485478 0.1023093 
-0.02469288 0.1214115 -0.6236409 0.9288714 -0.2718447 0.2515917 
0.00477598 0.03748013 -0.1834618 -0.3636489 0.9234021 -0.1228341 
0.06079422 0.01470567 0.6850333 0.5432817 0.80701 -0.2314734 
0.05623712 0.01647987 0.6819184 0.4973695 0.7998945 -0.3358457 
0.1796671 -0.03843133 0.6653763 -0.9874603 -0.142523 -0.06789257 
-0.03714938 0.1648977 -0.5449993 0.9706084 -0.08355586 0.2256944 
-0.05508444 0.1835838 -0.3849652 0.9571681 0.2765143 0.08584298 
-0.05502348 0.184361 -0.3884406 0.9623663 0.2620813 0.07186406 
-0.05653398 0.1874146 -0.3814677 0.9017749 0.4197843 0.1028748 
-0.05515897 0.1824186 -0.3795572 0.9730679 0.2210309 0.06545296 
0.056199 -0.07077304 0.5022123 0.9951057 0.03221462 -0.09341742 
0.1007282 -0.02566289 0.6745884 0.9511212 0.3079823 -0.02270088 
-0.1240606 0.09827112 -0.5990058 -0.1460344 -0.9006245 0.4093283 
0.04855638 -0.01271994 0.00837222 0.4521869 -0.8175362 0.3565973 
0.04915229 -0.01179332 0.00395709 -0.07301907 -0.6895375 -0.7205597 
0.02916193 -0.07056482 0.244579 -0.05264322 -0.9905746 -0.1264545 
0.00036602 0.02911049 0.04203172 -0.8888239 0.4578668 -0.0187147 
-0.00171177 0.02478785 0.04527234 -0.9134778 0.4060828 -0.0255931 
-0.1073174 0.1298509 -0.3746083 0.9275609 -0.2087106 0.3099526 
-0.1100145 0.1243045 -0.3761903 0.6249315 -0.7570164 -0.1907534 
-0.06479663 -0.00273473 0.7374428 -0.5985391 0.5636809 0.569223 
0.00207702 -0.05265949 0.2637211 -0.8436756 -0.5347886 -0.04704092 
0.00444099 -0.05528117 0.2594078 -0.7767143 -0.6255727 -0.07330574 
-0.01289101 -0.1023619 0.5186432 -0.7497897 -0.6599237 0.04812606 
-0.1472544 0.1357028 -0.4975492 -0.6293305 -0.7632138 -0.1464512 
-0.1435748 0.1327887 -0.497776 -0.5744596 -0.809061 -0.124163 
-0.1463023 0.1333769 -0.491518 -0.5917073 -0.784677 -0.1848361 
-0.09258829 -0.01969553 -0.7610877 -0.3719696 -0.18023 -0.9105799 
0.01546399 -0.08254158 0.332077 -0.4147157 -0.8527828 -0.3174467 
0.04429618 -0.05952267 0.3349184 -0.886715 -0.2858569 -0.3633489 
0.01153447 -0.04394348 -0.07884278 -0.2497464 -0.9464933 -0.2043952 
-0.06608774 0.08314265 -0.6643565 0.2047817 -0.4944546 0.8447362 
0.03065329 0.05516365 -0.0316526 -0.117665 0.9929294 0.01568828 
0.0284194 0.05462677 -0.02602286 -0.2312838 0.9727122 0.01840754 
-0.1368908 -0.03641808 -0.6915548 -0.843048 -0.5180871 0.1444159 
-0.1391998 -0.03344247 -0.6957893 -0.8722783 -0.4808393 0.0890178 
-0.08738867 -0.00765077 -0.6825295 0.5693264 0.7269883 -0.3838692 
0.1956841 0.00106455 0.7648361 0.8500733 0.5266329 0.005764634 
-0.03333146 0.02587899 0.1898086 0.2444411 0.3266724 -0.9129806 
-0.02595021 0.100591 -0.6419255 0.8862035 -0.3159137 0.3388834 
-0.01723251 -0.05861451 -0.7080165 0.6153707 -0.4703534 -0.632524 
-0.04749139 0.176341 -0.7002228 0.5800307 0.6428925 -0.5002536 
-0.1554105 0.0509095 -0.7372088 -0.8403738 -0.1199941 -0.5285578 
-0.1540165 0.05621728 -0.740128 -0.8119141 -0.06944885 -0.5796312 
-0.00964511 -0.05614169 0.446718 -0.5108374 -0.8493172 0.133062 
-0.03563474 -0.01457906 -0.6299701 0.060988 0.1861106 0.9806342 
-0.03993783 -0.01403475 -0.6299147 -0.02717655 0.1649718 0.9859238 
-0.1496766 0.1143784 -0.3703819 -0.40689 -0.9087693 -0.0926232 
-0.1533969 0.1162856 -0.3725602 -0.4515092 -0.8864338 -0.1018547 
-0.09149518 -0.08190829 -0.6677675 -0.6285344 -0.6751608 0.3861378 
0.08210198 -0.02751279 0.2372109 0.9962091 -0.08520667 -0.01752908 
-0.06701953 0.1253935 -0.1686978 -0.007214663 0.8055567 0.5924749 
-0.0635827 0.12228 -0.1646574 0.01261379 0.7924418 0.6098171 
0.04700409 0.04967238 -0.1116117 -0.5540878 0.8218606 0.1324088 
-0.02501373 0.1432761 -0.6163623 0.9807969 0.1894571 0.04629723 
0.04338078 0.02254441 -0.07081991 -0.3659658 0.5122344 0.7769716 
-0.06364603 0.1441533 -0.4843008 0.6783586 -0.72777 0.1008979 
0.1569145 -0.010698 0.7242908 -0.9387674 0.2581992 -0.2281425 
0.05318504 0.02681229 -0.1486134 0.8218383 0.07700049 -0.5644934 
0.05515406 0.02976352 -0.1450648 0.8296826 0.1280263 -0.5433564 
-0.1075242 0.09994781 -0.3248025 -0.7965099 -0.6042803 -0.02042996 
-0.0725114 -0.08034802 0.8405349 0.8339786 -0.5517544 -0.006842435 
-0.07426012 -0.01048424 0.7158418 -0.8397295 0.4133454 -0.3521363 
0.00585766 0.03491146 -0.1471616 -0.6103925 0.7825121 0.1228656 
0.0715437 -0.02441692 0.357578 0.789185 0.5507364 0.2718023 
0.01321637 -0.0414161 0.02192929 -0.496661 -0.8561168 0.1428008 
-0.08986969 -0.04838413 0.8432517 -0.231502 0.9271215 -0.2947077 
0.1827616 -0.08481887 0.6456325 -0.8939843 -0.2618431 0.3636349 
-0.08502357 0.1393788 -0.2492271 -0.8667818 0.4965928 -0.04566075 
-0.06994832 -0.02207055 0.7043647 -0.607688 0.1071804 -0.7869102 
-0.0700668 -0.01735611 0.7053421 -0.6283888 0.2044277 -0.7505578 
0.1468132 -0.1219442 0.6226945 -0.4291053 0.4954222 0.7552651 
-0.00736075 -0.03103811 0.2212223 -0.9489936 -0.1529428 0.2757168 
-0.00471999 -0.04020123 0.2233716 -0.9236025 -0.3508904 0.1543843 
-0.00588632 -0.03440009 0.2253187 -0.9542704 -0.2002052 0.2220043 
-0.02901702 0.05889565 -0.1057217 0.9996349 -0.01883933 -0.0193711 
-0.1033796 0.1792021 -0.7193007 -0.04949169 0.7348806 -0.6763883 
-0.1227151 0.06516216 -0.6358517 -0.009481601 -0.4027033 0.9152815 
-0.02302303 -0.02617866 0.7353995 0.277573 -0.8589039 0.430392 
-0.05344653 -0.02124041 -0.7288285 0.7298675 -0.3989479 0.5550983 
0.04140468 0.01084736 0.6701269 0.02553136 0.3881841 -0.9212282 
-0.03714027 0.1333434 -0.2622277 0.9326316 0.3606786 0.01045495 
-0.1039408 0.1399356 -0.4906671 0.9221089 0.3639709 0.1313021 
-0.00936688 0.1083147 -0.1726349 0.4392965 0.8610871 0.2560228 
-0.00543154 -0.05892448 0.4562119 0.3174628 0.8765992 0.3616506 
-0.01081512 -0.05779754 0.4546901 -0.5778013 -0.811516 -0.08710681 
-0.00602438 -0.05745662 0.4501464 0.180536 0.9832107 0.02652193 
0.0225257 -0.05141545 -0.01592755 -0.2248102 -0.9623715 0.152649 
0.1976278 -0.01606541 0.7622457 0.9675044 -0.1326111 -0.2152897 
-0.137456 0.1293499 -0.5181822 -0.537362 -0.8391446 0.08413291 
0.04271041 -0.02007972 0.1134101 0.9050137 -0.3157353 -0.285064 
0.00150132 -0.07902616 -0.563341 -0.190646 0.9713606 0.1418189 
0.06535573 -0.09073516 -0.7280274 -0.7811954 0.5443326 -0.3056728 
-0.1632396 0.1303546 -0.4417132 -0.6812887 -0.7174435 -0.145329 
0.03206562 -0.01199355 0.2810803 -0.7599378 -0.6485094 -0.04393388 
-0.01272766 -0.0213287 -0.6379322 0.6236424 0.3907917 0.677017 
-0.1024303 0.1206107 -0.6002768 0.9114966 -0.3197459 0.2587209 
-0.1664128 0.1297588 -0.4061061 -0.8329574 -0.5526451 -0.02766593 
-0.09084071 -0.0309384 -0.632065 -0.2010878 -0.2376136 0.9503176 
0.00311705 -0.1092679 0.5786182 -0.7339821 -0.5804027 0.3527082 
0.03597905 -0.06478574 0.2008235 -0.06046414 -0.9908472 -0.1206904 
0.03340954 -0.06597082 0.2107438 -0.05137361 -0.9890462 -0.138378 
-0.02918581 -0.1499258 -0.5929211 -0.6957067 -0.6301668 -0.3447926 
-0.03024739 -0.1512882 -0.588046 -0.7042614 -0.6380717 -0.3112561 
-0.02891824 0.112481 -0.1742878 -0.09569658 0.7690484 0.6319863 
-0.02523317 0.109593 -0.1700714 -0.1056219 0.8145003 0.5704676 
-0.1596252 0.1205304 -0.3534503 -0.7657523 -0.6430624 0.009702614 
-0.1603768 0.1213992 -0.3587092 -0.7391036 -0.6731899 -0.0232668 
-0.09632316 0.1422829 -0.3857341 0.9052764 -0.3967176 -0.1519529 
-0.09490032 0.1480427 -0.3893606 0.9755325 0.06777447 0.2091485 
-0.09013667 0.174951 -0.403222 0.7774529 -0.3129087 0.5455778 
-0.00852067 -0.09939948 0.4700941 -0.6880176 -0.7034757 -0.1781959 
-0.00326076 -0.1035788 0.4694089 -0.6047991 -0.7796366 -0.162434 
0.07128969 -0.03124158 0.6909103 -0.644972 -0.1988268 -0.7378883 
0.0659609 -0.02873417 0.6964265 -0.6779065 -0.292054 -0.674646 
-0.1743879 0.1488748 -0.41223 -0.9731451 -0.2271889 0.0370635 
-0.1753443 0.1548405 -0.4097937 -0.988017 -0.148175 0.04320459 
-0.1752838 0.1525677 -0.4160034 -0.9806741 -0.193367 0.02979045 
-0.03671195 0.1323118 -0.267368 0.9516336 0.3003832 -0.06452481 
0.1982126 -0.08715069 0.6766055 0.5134535 -0.4897256 0.704652 
0.1935568 -0.08994749 0.6776463 0.3954709 -0.5561891 0.7309285 
-0.07927521 -0.06615894 0.9740862 0.5124707 0.492653 0.7033256 
-0.1530939 0.1861474 -0.6628129 -0.7565692 0.5580371 -0.3408776 
0.03836466 -0.02181591 0.4269993 0.3881494 0.8670307 0.3124067 
0.03650885 -0.02279481 0.4320326 0.3055245 0.9068509 0.2903038 
-0.08890729 0.1560103 -0.3562579 -0.8988702 -0.4185025 -0.1299537 
-0.09030713 0.1509262 -0.355816 -0.9053168 0.267792 0.3296802 
0.03790892 -0.04298529 0.1291742 -0.6852156 0.7257051 -0.0619009 
0.265248 -0.160186 0.8696951 -0.2161078 -0.7849998 -0.5805797 
0.2679598 -0.1627008 0.8708833 0.3540618 -0.8059172 0.4744868 
-0.0838237 -0.08747539 0.9890905 0.5609343 0.1004363 0.8217453 
-0.05562798 0.07785033 -0.1783455 0.9349583 -0.2019748 0.2916491 
-0.05409158 0.07374489 -0.1752518 0.8914536 -0.4047906 0.2036054 
-0.08891177 0.1286173 -0.3143594 -0.9086179 0.3269806 0.2598025 
-0.09007273 0.1282162 -0.3177367 -0.9011791 0.326441 0.2851536 
-0.07214178 0.02957018 -0.6878683 0.237697 0.2729872 0.93219 
-0.0677814 0.02859492 -0.6912435 0.1277285 -0.9040394 0.4079196 
0.00609106 0.03186125 0.07091632 -0.7251764 0.6596892 0.1973053 
0.00394145 0.0313705 0.06458174 -0.7486473 0.6295814 0.2077366 
0.00257746 0.02786973 0.06956276 -0.8031594 0.5752847 0.1548636 
-0.1734936 0.1936172 -0.4611031 -0.9564169 0.2317552 -0.1776408 
-0.07040195 0.136808 -0.4378983 0.6732247 -0.7386234 -0.03469947 
0.04766487 -0.04701408 0.141028 -0.9642068 0.06014436 0.2582402 
0.04775557 -0.05030318 0.1449267 -0.7769732 0.2165278 0.5911246 
0.0495268 -0.04319228 0.1422149 -0.7225813 0.6893462 0.05175113 
-0.1611936 0.1981013 -0.6123116 -0.8789512 0.4515711 -0.1533895 
-0.02858512 0.03128348 -0.1332047 0.1459917 0.8817213 0.4486134 
0.02661139 -0.06836149 0.2314592 -0.2028645 -0.9713192 -0.1240366 
0.04633652 -0.01478065 0.00326727 0.5515902 -0.8311284 0.07052543 
-0.02221881 0.06086528 -0.2314497 0.622923 -0.2582347 -0.738432 
-0.03672398 0.03279913 0.7205074 -0.6953663 0.7180659 0.02910435 
0.01442069 -0.00638572 0.2847164 -0.7125485 -0.6932905 -0.1078099 
-0.03820315 0.07397395 -0.7307736 0.9677607 0.04796633 -0.2472616 
-0.0395343 0.07835624 -0.7335763 0.9451047 0.1108415 -0.3073944 
0.1554426 -0.1203712 0.6313202 -0.6849554 0.6989094 0.2058199 
0.00294832 0.0333891 0.03773217 -0.8496737 0.5268098 -0.02293548 
0.2637895 -0.1629445 0.8732141 0.04467086 -0.9543372 0.2953728 
-0.00696874 0.09606462 -0.2138299 0.8350529 0.3874137 -0.390637 
0.1236176 -0.1558344 0.6264747 0.0193467 -0.9368231 0.349268 
0.1254894 -0.1535495 0.6313748 -0.03668286 -0.8628603 0.5041096 
-0.05971982 0.05764975 -0.6883844 0.3161032 0.3185703 0.8936396 
-0.00144941 -0.1628149 -0.5845538 0.09366533 -0.9120027 -0.3993467 
0.0005113 -0.1602838 -0.5896574 0.1412246 -0.900199 -0.4119435 
-0.05428783 -0.1049296 -0.6571655 -0.5823899 -0.8095906 0.07338351 
-0.05178897 -0.1067024 -0.6576188 -0.5219674 -0.8516053 0.0481513 
-0.05270738 -0.1058316 -0.6548251 -0.5510473 -0.8249913 0.1254445 
0.07685369 -0.00490956 0.2648826 0.8349428 0.5502645 -0.008911512 
-0.0975051 0.03930799 -0.6613812 0.8017355 0.1457069 0.5796462 
0.01035243 -0.08024818 0.5709978 0.1898481 -0.9385787 0.2881455 
-0.00293703 -0.01997937 0.2368849 -0.9269 0.3527443 0.1281709 
0.08628862 -0.08554345 0.6525401 0.635842 -0.7693341 0.06188881 
-0.00931895 0.1093027 -0.1784223 0.5280932 0.8417559 0.1120921 
-0.07049512 0.1774283 -0.5768526 0.3401467 -0.8153189 0.4685674 
-0.07272684 0.1774943 -0.5716795 0.6952894 -0.7180681 0.03083844 
-0.06444629 0.1426092 -0.4897582 0.6842714 -0.7183487 0.1254903 
-0.01450567 0.01757205 0.6989455 -0.2263844 -0.8677948 -0.4423598 
-0.04881921 0.1946063 -0.4858815 0.963423 0.2657123 0.0348295 
-0.1586685 0.1411657 -0.4815205 -0.7450079 -0.5923228 -0.3067851 
-0.1583461 0.1429915 -0.4863151 -0.7442342 -0.6078945 -0.2767307 
-0.1387745 0.10585 -0.3371523 -0.2814567 -0.9441869 -0.1711529 
-0.02070864 -0.06076178 -0.6175649 -0.3311929 0.562962 0.7572219 
-0.02518894 -0.06509174 -0.6166125 -0.4433265 0.5305169 0.7225049 
-0.0211612 -0.06504604 -0.6141663 -0.423971 0.6016063 0.6769922 
-0.01427698 -0.0208026 -0.03093506 -0.949483 -0.3089757 0.05491824 
-0.03386591 0.04552849 -0.1182002 0.8948197 0.2980101 -0.332397 
0.05248079 0.02207687 -0.1496753 0.8066936 -0.06078677 -0.5878354 
-0.02988895 0.1244908 -0.2145347 0.5795601 0.814702 0.01925387 
-0.06913807 -0.00051333 0.7285599 -0.769959 0.5652813 0.2960075 
0.01837437 -0.03468407 0.3419455 -0.5829948 -0.8119268 -0.02986743 
0.02320519 -0.03603559 0.3409463 -0.09074497 -0.9957256 0.01719672 
0.01985157 -0.03306299 0.338013 0.002107417 -0.9929311 0.1186743 
-0.09329858 0.204713 -0.3120839 0.3641048 0.896642 0.2519146 
-0.002737 -0.1013968 0.5769201 -0.8786954 -0.267168 0.3956206 
-0.00043827 -0.1039639 0.5791123 -0.7971309 -0.4489395 0.4037769 
-0.1474875 0.062479 -0.6450108 -0.4678867 -0.3712192 0.8020464 
0.02216242 0.01253692 0.2824031 -0.4238952 0.9023451 0.07801398 
0.00922869 -0.1808432 0.2429455 0.8223451 0.3600413 0.4405892 
-0.0002361 -0.06116416 0.4383274 -0.1043027 0.9785305 0.1777618 
-0.1050362 0.104149 -0.620713 0.5767329 -0.5973295 0.5572941 
-0.1165382 0.2096044 -0.3168538 -0.1146178 0.9526442 0.2816591 
0.2483412 -0.1451445 0.8776449 -0.8680922 -0.4791712 0.1296568 
0.2479736 -0.1428976 0.8800239 -0.8854637 -0.3733703 0.2766746 
-0.05195136 0.04416821 -0.2105094 -0.8774768 0.4581495 0.1418928 
0.01807623 -0.03040933 0.5077562 0.1115451 0.9908279 0.0762748 
0.02098266 -0.0305182 0.5027231 0.1950736 0.9798946 0.04186581 
0.2528393 -0.1394894 0.8575113 -0.3500749 -0.5696177 -0.7436284 
-0.09429482 0.01233689 0.2143462 0.1726411 -0.58448 0.7928292 
0.0664441 -0.01389138 0.680274 -0.7959071 -0.5968432 -0.1015391 
0.06781237 -0.01447336 0.6747326 -0.7512996 -0.6030017 -0.2682124 
0.07034951 -0.01778971 0.6784292 -0.6277342 -0.6846098 -0.3704852 
0.2013322 -0.0133864 0.8272517 0.2552839 0.8491994 0.4622669 
-0.09978926 0.1440008 -0.484532 0.9576611 -0.2757331 0.08280397 
-0.09936803 0.1487386 -0.4882713 0.9597757 -0.2528957 -0.1219601 
-0.03063412 0.1766654 -0.6207701 0.9784673 0.09152124 0.1850015 
-0.0306244 0.1797051 -0.6251508 0.9588045 0.2605147 0.1132519 
-0.03139785 0.1806254 -0.620086 0.9736228 0.1745808 0.1469019 
0.02548815 -0.01563853 0.274424 -0.5785364 -0.8116198 -0.08104879 
0.0209397 -0.01362551 0.280174 -0.004013634 0.998083 -0.06175991 
-0.01346811 0.02544309 -0.2001135 0.123404 0.2670741 -0.955742 
-0.00994302 0.02482724 -0.199901 0.1521618 0.1352929 -0.9790519 
-0.1645194 0.1811463 -0.5305005 -0.9976538 0.06034393 0.03233615 
-0.006249 -0.08269569 0.5230366 -0.03907678 0.7121844 0.700904 
0.01496496 -0.1025244 0.6048093 -0.7503457 -0.4495831 0.4846196 
0.0531337 0.01861629 -0.01880739 -0.4593853 -0.358575 0.8126433 
0.00019893 -0.06677233 0.3291022 -0.8588427 -0.4316364 -0.2758249 
-0.03919948 0.1484482 -0.6391061 -0.1599187 -0.8514614 0.4994392 
0.04983846 0.03599211 0.03173264 -0.9990193 0.03417718 -0.02815187 
-0.0506938 0.0192616 -0.2048443 0.03810089 -0.7812299 -0.6230797 
0.04338252 -0.1102354 -0.5509053 0.8533306 0.4106916 0.3211844 
0.04285192 -0.1117183 -0.5445406 0.4535834 -0.04563963 0.8900445 
0.03326703 -0.03877123 0.5431771 0.2296989 0.9588576 0.1668253 
-0.01795393 -0.00031417 0.7625964 0.8513067 0.3845972 0.3568781 
0.06134326 -0.03629856 0.4143403 0.8271356 0.479185 0.2936468 
-0.00508784 -0.06034025 0.462143 -0.2568561 0.8439728 0.4708872 
-0.0132772 -0.05468262 -0.7068941 0.6736403 -0.3636304 -0.6434141 
0.02442374 0.05039416 0.02282087 -0.1063149 0.9826488 0.1519815 
-0.00885629 0.09026308 -0.1313771 -0.06574651 0.8545004 0.5152733 
-0.00679777 0.09366383 -0.1374852 0.03136953 0.8992059 0.4363996 
-0.1041403 0.08261485 -0.2894524 -0.9516914 -0.2456406 -0.184239 
-0.03080181 -0.01360523 -0.6311153 0.2367481 0.2630795 0.9352751 
-0.02626194 -0.01312941 -0.632876 0.3435658 0.3329654 0.8781211 
-0.02949745 -0.00793204 -0.6336183 0.3369059 0.4292111 0.8380169 
-0.0882706 0.2224967 -0.3934861 0.5933871 0.7910666 0.1486783 
0.01558619 -0.04352154 0.01390341 -0.4387572 -0.8910816 0.116042 
0.00987224 -0.01699079 -0.1595525 0.1782372 -0.7970455 -0.5770182 
0.07618372 0.04390895 -0.00760069 0.3952655 0.9184635 -0.01378463 
0.1910273 -0.03571324 0.7748329 0.3830681 -0.8517185 -0.3575394 
-0.01141066 -0.0284377 0.2084843 -0.9297459 -0.2640982 0.2565635 
-0.00972435 -0.03255183 0.2106763 -0.9332187 -0.2875191 0.2154893 
-0.02868898 0.1179402 -0.6150612 0.8590676 -0.4141963 0.3007397 
0.05927096 -0.03530049 0.1887603 -0.344048 -0.9165463 -0.2038967 
-0.1528908 0.1120778 -0.6069375 -0.7482722 -0.5995619 0.2839267 
-0.1493178 0.1098845 -0.6027945 -0.6939705 -0.6607816 0.2859594 
0.01715204 -0.08186535 0.3282644 -0.3899166 -0.8612131 -0.3260019 
-0.02491739 0.07386171 -0.6902932 0.9833105 -0.06720404 -0.1690686 
-0.02460983 0.07327195 -0.6857628 0.9936709 -0.1122694 -0.003722424 
0.01873761 0.01581408 0.1477761 -0.854497 -0.4639747 -0.2335861 
0.02029612 0.01577429 0.1443364 -0.9047509 -0.3421315 -0.2537158 
0.01975797 0.01335304 0.1514477 0.3523058 0.5275615 0.7730198 
-0.030395 0.04024917 -0.1104626 0.736093 0.3673054 -0.5685542 
0.04700218 0.04353555 0.00965698 0.8005338 0.5309851 0.2778497 
0.09825014 -0.01980249 0.6779577 0.8885865 0.4492555 0.09264799 
0.07666986 -0.00579465 0.291974 0.8002717 0.5947674 0.07626974 
0.07999011 -0.01132324 0.2939255 0.878002 0.4756457 0.05360685 
0.07902507 -0.00877354 0.2878668 0.8319927 0.5526331 0.04883397 
-0.1210288 0.1218375 -0.5294356 -0.1734995 -0.9770554 0.1235343 
-0.01219822 -0.00686605 -0.6533346 0.7259631 0.6292269 0.2775811 
0.04817754 -0.01175827 0.1204669 0.9636235 -0.0005755126 0.2672627 
-0.04368577 0.02706854 -0.7101163 -0.6755219 0.08664387 -0.7322316 
0.1753447 -0.07889598 0.6387092 -0.9676361 0.2516887 0.01825341 
0.1726232 -0.07885464 0.6341951 0.5927571 -0.09816185 -0.7993768 
0.1728435 -0.08412904 0.6365334 0.6673374 -0.2256999 -0.7097326 
-0.04159609 -0.09309115 -0.6198722 -0.8075815 0.007986627 0.5897018 
-0.06772809 0.1252344 -0.5458241 0.4438731 -0.8478463 0.2900573 
0.00965089 -0.00034423 0.2068956 0.08079559 0.8337473 0.5462028 
-0.1532148 0.0015968 -0.6978684 -0.9464799 -0.3096402 0.09109806 
0.02391835 0.0539265 -0.03859081 -0.3143764 0.9438469 0.1015901 
0.02897423 0.05515373 -0.03733144 -0.1492901 0.9874398 0.05172246 
-0.00348641 -0.09977981 0.4482457 -0.5873036 -0.7931343 -0.1612839 
-0.0824718 -0.03654198 -0.7706495 -0.8172631 0.2915062 -0.4970968 
0.01795523 0.02533252 -0.1233255 -0.2221397 0.9152797 -0.3360313 
-0.1039081 0.1408902 -0.4971808 -0.9812827 -0.1871623 -0.04532733 
-0.09919315 0.06700575 -0.7750579 -0.1122627 0.1706909 -0.9789085 
0.01364416 -0.0521662 -0.6571692 0.8106226 0.5707463 -0.1309186 
0.01118579 -0.04944567 -0.6613114 0.8620902 0.4907408 -0.1263884 
0.04855635 -0.00526692 0.03868956 -0.9556674 0.2703646 -0.1166319 
0.04772787 -0.00549818 0.04613118 -0.9811503 0.190993 0.02942328 
0.04794591 -0.00015112 -0.00361916 -0.8592124 -0.01642489 0.5113553 
0.04781038 -0.00120805 -2.278e-05 -0.7504967 -0.2502404 0.6116652 
0.08379608 -0.02656268 0.2698866 0.9962037 0.04891076 -0.07201456 
-0.1654918 0.1086074 -0.6417314 -0.9250976 -0.2129422 0.3144041 
-0.09953605 -0.03923085 -0.6376814 -0.4173362 -0.3463304 0.8401701 
-0.0765965 -0.02390579 -0.6770745 0.9980398 -0.0566435 -0.02661218 
0.06723473 -0.04182594 0.7087197 -0.4313853 -0.5312483 0.7291653 
0.07034644 -0.04373962 0.7080576 -0.1767341 -0.5236866 0.8333771 
0.021966 0.00618012 0.6802603 -0.2242153 -0.7547106 -0.6165546 
0.03802921 -0.08499309 0.5145226 0.1304911 -0.6418123 0.7556779 
-0.1549903 0.1406911 -0.2595837 -0.9164357 0.0735274 0.3933694 
-0.1546599 0.1350787 -0.258189 -0.920871 0.009897537 0.3897418 
-0.1530906 0.1398608 -0.2552915 -0.898797 0.1128775 0.4235831 
-0.02814869 0.09502138 -0.2475539 0.8133487 0.006160369 -0.581744 
0.0211258 -0.03108899 0.3337021 -0.6707202 -0.7416645 0.008247635 
-0.04832595 0.1493788 -0.3016642 0.9425943 0.3004367 -0.1457867 
-0.04999573 0.1538635 -0.3033505 0.9255137 0.3748394 -0.05403477 
0.0436224 -0.05663959 0.09041079 0.1648538 -0.9779369 -0.128307 
0.03985863 -0.05653716 0.08655553 0.09348156 -0.9890761 -0.113972 
-0.05399491 0.1505713 -0.2525459 0.3673598 0.8915986 0.2647613 
-0.1501055 0.164192 -0.2644982 -0.7665192 0.4499867 0.458214 
0.06037272 -0.04308471 0.4264977 0.8701964 0.3847732 0.3077465 
-0.01723692 0.06207023 -0.2275814 0.6361328 -0.243395 -0.7321844 
-0.02038628 0.05675496 -0.2285184 0.6229898 -0.2722149 -0.7333367 
0.03749259 0.04188234 0.1099781 -0.09495559 0.9747676 0.2020186 
0.03365553 0.04159663 0.1087625 -0.2641131 0.9501767 0.1655557 
-0.103237 0.1241469 -0.5918106 0.9145249 0.07652088 0.3972264 
-0.09589063 0.1751769 -0.3886821 0.5726928 -0.5438574 -0.6133859 
-0.07537291 -0.03170995 -0.6632452 0.4640108 0.8583016 0.2191176 
0.05524165 -0.04808702 0.3124278 -0.8581535 -0.4607723 0.2264101 
0.05040491 0.02158649 0.04900468 -0.6442703 -0.6771562 -0.3554932 
0.05153186 0.01892983 0.04404337 -0.7566297 0.653805 -0.0071138 
-0.05913175 0.08508901 -0.6617483 0.9438981 0.3300928 -0.009760091 
-0.08593863 -0.02250749 -0.669083 -0.8447254 -0.4906276 -0.2138309 
-0.0810115 0.1744469 -0.302184 0.861631 -0.4121746 -0.296149 
-0.05221115 0.0211242 -0.2075758 0.08592188 -0.7354468 -0.6721128 
-0.05774 -0.04436933 -0.7019111 0.8106206 -0.04044943 0.584173 
0.04984478 -0.06840494 0.3398313 -0.7878456 -0.01978427 -0.615555 
-0.02277824 -0.01001995 -0.6361234 0.4745323 0.3991487 0.7845377 
-0.02202375 -0.01646092 -0.6336424 0.4149833 0.2858377 0.8637626 
0.1790279 -0.07231109 0.6640778 0.9565499 -0.2873459 0.04944444 
-0.1045471 0.195182 -0.2763883 0.0957013 0.867278 0.4885389 
-0.0994028 0.1940634 -0.2760747 0.2088532 0.8543281 0.4759242 
-0.08551513 0.07508814 -0.2866273 0.1386117 -0.8687661 -0.4754285 
-0.1146445 -0.08894274 0.9782646 -0.6118768 -0.510554 0.6041039 
0.02526608 -0.00923306 0.7150621 -0.4750787 -0.8123939 -0.3381072 
-0.01100596 -0.09484357 0.4611684 -0.7340628 -0.6692889 -0.11491 
-0.1723074 0.141518 -0.4249262 -0.9335682 -0.3569308 -0.03241549 
-0.1718324 0.1407987 -0.4298731 -0.9143195 -0.4012087 -0.05524028 
-0.00191774 0.01591553 0.104336 -0.8496217 0.5266715 0.02756986 
-0.02673636 -0.1207229 -0.7345163 0.006487112 -0.9966594 -0.08141296 
0.05898895 -0.05846282 0.4469209 0.9487603 0.2191707 0.2276363 
0.05822505 -0.05920722 0.4507211 0.958055 0.1755411 0.2265305 
-0.07438984 -0.08111136 -0.6506585 -0.5027128 -0.5360923 0.6781482 
-0.06963588 -0.08203045 -0.6477937 -0.5509731 -0.4787154 0.6835644 
0.1973833 -0.09206174 0.6732752 0.5076926 -0.5360572 0.6744561 
0.2010831 -0.08895523 0.6723034 0.6393936 -0.4836834 0.597684 
-0.02788926 -0.06028489 -0.6212174 -0.3756617 0.4184653 0.8269009 
0.09062144 0.02284349 0.08015414 0.8409716 0.5042104 0.1963128 
0.04708249 -0.1384399 0.09423532 0.8511546 0.3796583 -0.3624849 
-0.08016178 0.1283495 -0.6038585 0.9448278 -0.1776286 0.2752247 
-0.07797138 0.1272811 -0.6075301 0.4300139 -0.8253561 0.3658901 
-0.05560653 0.07222898 -0.1799055 0.7804389 0.5677986 -0.2617632 
-0.05160121 0.1997464 -0.5524603 0.7832863 -0.4877673 0.385416 
-0.07516112 0.1754507 -0.2711568 0.9102197 0.3888457 0.1424751 
0.04048724 -0.01287153 0.1721461 -0.7444555 -0.5178711 -0.4214208 
-0.04446865 0.1000861 -0.7345895 0.8458415 0.2272503 -0.4826069 
-0.04119048 0.09503855 -0.7307469 0.896847 0.1732493 -0.4070014 
-0.1625007 0.1366428 -0.5905767 -0.9274665 -0.3512377 0.1282107 
-0.089359 0.1787642 -0.4045104 0.5335711 0.8213562 0.2016826 
0.02143336 -0.03008931 0.4924506 0.2552121 0.9660903 0.03919477 
