ply
format ascii 1.0
comment VCGLIB generated
element vertex 741
property float x
property float y
property float z
property float nx
property float ny
property float nz
element face 0
property list uchar int vertex_indices
end_header
-0.7427385 0.352606 0.00131803 -0.7193161 -0.5196186 0.4610648 
-0.5316297 0.2616811 0.09080941 -0.2363289 0.1015485 0.9663522 
0.2719899 0.07887121 0.1935462 -0.1931941 -0.9211493 -0.3378759 
0.2636687 0.07650325 0.2061465 -0.3615152 -0.8943198 -0.2636263 
-0.1687222 -0.1049249 0.2051 -0.05914804 -0.1748544 0.9828161 
-0.1443612 -0.112921 0.2049743 -0.04435041 -0.1905886 0.9806677 
-0.1542488 -0.1032144 0.2061834 -0.04684065 -0.1415078 0.9888284 
0.1203281 0.1282162 0.226795 -0.04550873 -0.4265796 0.9033044 
0.1156053 0.118481 0.2222531 0.01851111 -0.3621326 0.9319428 
0.6198952 -0.2118217 -0.0869777 0.7603003 -0.218669 0.6116595 
0.613874 -0.2039066 -0.07703212 0.7455235 -0.2226698 0.6281822 
0.6772088 0.3180966 0.04491613 0.239855 0.963221 0.1211403 
0.668124 0.3199619 0.03209504 0.1381434 0.9732901 -0.1833653 
0.6806476 0.3131081 0.05933297 0.2992904 0.8964153 0.3269019 
0.6885448 0.3136155 0.05093181 0.3636864 0.8645402 0.3468464 
0.6915286 0.315133 0.03944467 0.2997502 0.9454999 0.1272003 
0.6821972 0.3176034 0.02866209 0.1863133 0.9776741 -0.09716279 
0.4834465 -0.2387174 -0.2670328 0.5343074 -0.2939137 -0.7925467 
0.4773098 -0.2290502 -0.2747737 0.5359129 -0.3061149 -0.7868235 
0.4676783 -0.2283534 -0.281746 0.5420792 -0.3032189 -0.7837145 
0.3404311 0.01286594 -0.3177457 0.2739708 0.468448 -0.8399384 
0.6504655 -0.107169 -0.1695324 0.9557581 0.2440241 -0.1642523 
-0.02581638 -0.2842257 0.08438767 0.06797686 -0.7311015 0.6788739 
-0.02560555 -0.2921717 0.07560988 0.03076214 -0.8016976 0.5969378 
0.2455731 -0.1759663 0.2365438 -0.6120725 0.2466359 0.7513574 
0.2540444 -0.1843745 0.2457263 -0.596771 0.1816758 0.7815742 
0.2593366 -0.1698379 0.2446561 -0.5663515 0.3075546 0.7646282 
0.2478386 -0.1621837 0.2327289 -0.5863757 0.3385935 0.7358791 
0.2588899 -0.1542353 0.237251 -0.5387001 0.403369 0.7396591 
0.2696112 -0.1580136 0.2468254 -0.5078907 0.399169 0.7633553 
0.2819561 -0.1467479 -0.3678127 0.2794582 0.05830251 -0.9583861 
0.4373367 0.182565 -0.00486679 -0.2748798 -0.7247916 -0.631758 
0.6030764 -0.4593766 0.1385601 0.8321828 -0.5450202 0.1021024 
0.6099862 -0.4475737 0.1311555 0.9113342 -0.4114939 -0.01195263 
0.6141278 -0.4348834 0.1259878 0.9071011 -0.3250359 -0.2674309 
0.6135 -0.4381173 0.1403347 0.94154 -0.3008378 0.1516547 
0.3997434 -0.06434906 0.1857082 0.376461 0.6165264 0.6915001 
0.3973564 -0.05171236 0.1763031 0.3617417 0.58201 0.7282906 
0.3875069 -0.05799915 0.185827 0.3033663 0.6522963 0.6946067 
0.6383267 0.3022367 0.1164043 0.453073 0.6608725 0.598308 
0.2970751 -0.3406019 -0.02375526 -0.1593399 -0.8144935 0.5578629 
0.4606113 -0.08133696 0.1509762 0.6731952 0.4691328 0.5715965 
-0.2477489 -0.1143575 -0.2954507 -0.2733486 -0.4210876 -0.8648502 
-0.2594196 -0.09943499 -0.297781 -0.2712174 -0.3278143 -0.9049745 
-0.1653418 -0.2910938 -0.1966872 -0.01406047 -0.72847 -0.6849334 
-0.148872 -0.2923349 -0.1956431 0.002935264 -0.7757852 -0.6309903 
-0.1430665 -0.2826951 -0.2055684 -0.02877576 -0.7063739 -0.7072538 
-0.5925346 -0.05095957 -0.1145341 -0.8512625 -0.236679 -0.4683325 
-0.6170743 0.00131793 -0.09659571 -0.7736437 -0.1411091 -0.6177084 
-0.6704416 -0.06150346 0.02576812 -0.8098933 -0.2531608 -0.5291337 
-0.6790023 -0.05555018 0.03443645 -0.719027 -0.1692343 -0.6740623 
-0.6749679 -0.04613073 0.0264604 -0.7998947 -0.1430781 -0.5828354 
-0.728545 -0.09217267 0.08116102 -0.4953039 -0.2309194 -0.8374667 
-0.6331772 -0.2036017 0.1777214 0.2434497 -0.9232965 0.297079 
-0.6244485 -0.2040734 0.1701708 0.2031537 -0.9615576 0.1847583 
-0.8169054 -0.185194 0.2800754 0.1005206 -0.1998024 0.9746664 
0.2045803 0.2457366 0.3122339 -0.3562852 0.1578627 0.9209452 
0.1936934 0.2542782 0.3059448 -0.3708395 0.200905 0.9067057 
-0.00857835 0.2906482 -0.165014 0.01871089 0.8740429 -0.4854884 
-0.01788107 0.2866877 -0.1717066 -0.007411136 0.848143 -0.5297155 
-0.01949863 0.2940905 -0.1569756 -0.008217574 0.9198976 -0.3920726 
-0.00413305 0.2955675 -0.1537505 0.009194301 0.9293234 -0.3691524 
0.00306256 0.289999 -0.1654549 0.03345337 0.8861753 -0.4621409 
0.1534808 0.338478 -0.04098352 0.1416569 0.8313935 -0.537325 
-0.3846431 0.3429947 0.05172784 0.2369215 0.7872669 0.5692794 
-0.3954419 0.3601173 0.03105733 0.3536676 0.8298203 0.4316451 
-0.3839558 0.3508681 0.03919012 0.3408828 0.8296127 0.4422011 
0.4572047 -0.3492793 0.07552745 -0.1499144 -0.4155351 -0.8971379 
0.4258136 0.2182549 0.09909896 0.3454579 -0.8597017 0.3762603 
0.4173519 0.2107496 0.08929858 0.4330372 -0.8020579 0.4113173 
0.1517549 -0.1284485 0.1618371 -0.06691094 0.03392731 0.997182 
0.1571078 -0.1347865 0.1624062 -0.1089057 0.06512244 0.9919167 
0.4806699 -0.2545677 0.2188884 0.5579661 0.1283089 0.8198845 
0.5139037 -0.00117748 0.2682602 0.4570345 -0.6567371 -0.5998465 
0.456515 -0.2280961 -0.2897538 0.544331 -0.2948211 -0.7853562 
-0.5944916 0.1485416 -0.1162793 -0.6983041 0.08384122 -0.7108741 
-0.6035585 0.1556264 -0.1071732 -0.6752087 0.05573926 -0.7355177 
-0.6161154 0.1498411 -0.09544377 -0.7160303 0.01509151 -0.6979061 
-0.6112425 0.1614963 -0.09999365 -0.6922427 0.02203872 -0.7213282 
-0.6027414 0.169222 -0.107065 -0.6392785 0.04641235 -0.7675735 
0.268251 -0.3659944 -0.08430504 -0.3477253 -0.7908221 0.5036739 
0.2721579 -0.3732531 -0.09263437 -0.3483305 -0.764489 0.5424228 
-0.3717813 0.3525321 -0.02774864 0.548565 0.8317008 -0.0857337 
-0.364438 0.348381 -0.01900825 0.5440088 0.8359632 -0.07224997 
0.185477 -0.2961954 0.04794731 -0.04583501 -0.9960301 0.07631091 
0.1893053 -0.2968672 0.02714244 -0.0779493 -0.9964203 0.03272114 
0.1901081 -0.2967302 0.03903051 -0.07153092 -0.9967031 0.03829194 
0.1770033 -0.295763 0.02092987 -0.1033481 -0.9946142 0.007855197 
-0.3985805 -0.1155117 0.1845086 -2.008883e-05 -0.3170939 0.9483942 
-0.1759393 0.1999627 -0.2607157 -0.1063731 0.6576535 -0.7457726 
-0.1821045 0.2081648 -0.252366 -0.1186535 0.6725795 -0.7304506 
-0.218951 0.2971863 -0.1370296 -0.0413575 0.9654841 -0.2571575 
-0.21242 0.2930304 -0.149882 -0.07821076 0.9178767 -0.3890828 
0.03844627 0.3513017 0.00254334 -0.1699546 0.947465 -0.2709715 
0.1750343 -0.2016268 0.1731346 -0.5338348 -0.06215642 0.8433012 
-0.09898154 0.1623932 -0.2989596 -0.04452247 0.6116968 -0.7898386 
-0.1029385 0.1518351 -0.3068109 -0.05993642 0.5586389 -0.8272426 
0.6236651 -0.1982904 -0.08740043 0.7837065 -0.1711911 0.5970744 
0.6173414 -0.1902074 -0.07736003 0.7774692 -0.1454629 0.6118678 
0.6091131 -0.1956044 -0.06877115 0.7554102 -0.1760378 0.6311626 
0.2715123 0.3633238 0.1818707 0.2764213 0.9016284 0.3326521 
-0.1642686 0.08626456 0.2268902 -0.4280713 0.07250107 0.9008322 
-0.1779487 0.08148693 0.2208355 -0.3920732 0.05713019 0.9181583 
0.270825 -0.02701667 -0.3497252 0.1317035 0.2536328 -0.9582925 
0.5786297 -0.00534644 -0.1310813 0.7074336 0.700246 0.09588197 
0.5715806 -0.00060098 -0.1163907 0.7212378 0.6797221 0.1333938 
0.5637358 0.0076202 -0.1154695 0.718339 0.6864594 0.1129717 
-0.2598984 -0.00574666 0.2083308 -0.00407858 -0.001545441 0.9999905 
0.3457221 0.00252455 -0.321398 0.2777677 0.4321415 -0.857962 
-0.4825588 0.4240107 -0.03359327 0.6080984 0.7846543 -0.1205565 
-0.4804719 0.4229898 -0.02290634 0.5765836 0.8167053 -0.02332493 
-0.4719351 0.4162897 -0.03334504 0.5841341 0.8085445 -0.07101637 
-0.470813 0.4163624 -0.02120934 0.5502672 0.8338971 0.04268091 
-0.459421 0.4085557 -0.02559246 0.5319561 0.8448814 -0.05655322 
0.1053782 0.3550276 0.132109 -0.3830841 0.9236861 -0.007115621 
0.101781 0.3538531 0.1191028 -0.3427418 0.9373313 0.06275625 
0.1068017 0.3562389 0.1455959 -0.3709638 0.9278791 -0.0377674 
0.1169667 0.3595479 0.1212667 -0.3612747 0.9319517 0.03076714 
0.1179304 0.3602066 0.1370859 -0.3625749 0.93147 -0.03005348 
-0.2318485 0.1188372 0.205896 -0.0938678 0.1603629 0.9825847 
-0.2341593 0.1335072 0.2027052 -0.1250657 0.2333008 0.9643285 
0.2910206 -0.2837052 -0.347797 0.2305406 -0.2260021 -0.9464535 
0.2999315 -0.304943 -0.3397046 0.2923604 -0.2564484 -0.9212815 
0.3043779 -0.292024 -0.3416836 0.2923829 -0.2386075 -0.9260554 
0.2927203 -0.1419691 -0.364066 0.2707822 0.06319987 -0.9605638 
0.284947 -0.1299124 -0.3652108 0.2722693 0.1215415 -0.9545141 
-0.3564276 0.2356716 0.1414014 -0.1761577 0.4707827 0.8644838 
-0.4732977 0.08850746 -0.2396485 -0.4648489 0.2060642 -0.8610766 
-0.4690442 0.1015003 -0.2381179 -0.4547734 0.2501993 -0.8547405 
0.4071189 0.2443239 -0.02616861 -0.1129034 -0.03438302 -0.9930109 
0.4152316 0.1784104 0.0148763 -0.3033839 -0.8810077 -0.3630201 
0.4117131 0.1755814 0.0276875 -0.2818269 -0.9443479 -0.1696484 
0.4013776 0.1777148 0.03222249 -0.2734752 -0.9413777 -0.1975333 
0.4103683 -0.05968341 0.175919 0.4331967 0.5643302 0.7027603 
0.4080051 -0.04687519 0.1674181 0.4107634 0.5367418 0.7370086 
0.4117881 -0.07168523 0.1852641 0.4273763 0.6020551 0.6744474 
0.419397 -0.06857996 0.1775065 0.4859133 0.5558743 0.6744568 
0.4208085 -0.06189772 0.1711593 0.4617676 0.552076 0.6942498 
0.4170839 -0.05371942 0.1673262 0.4271419 0.5378185 0.7268433 
0.7391607 0.2809488 0.00724676 0.7626429 0.5322624 -0.3675221 
0.6504787 0.2725573 0.1240119 0.5718377 0.1655658 0.8034859 
0.6426017 0.2730587 0.1302096 0.5193697 0.09592049 0.8491492 
0.641544 0.259325 0.1298406 0.5003971 -0.1573296 0.8513814 
0.6528109 0.2586985 0.1229842 0.5330411 -0.1016419 0.839962 
-0.251414 -0.1377667 -0.28168 -0.2044467 -0.5243915 -0.8265684 
-0.5849578 -0.01143311 -0.1428625 -0.8550429 -0.1025171 -0.5083225 
-0.6412876 -0.00081419 -0.06709059 -0.7947203 -0.1235828 -0.5942618 
-0.6476553 -0.0092331 -0.05658995 -0.8062509 -0.1390786 -0.5749928 
-0.6454696 -0.02579933 -0.0545499 -0.8011568 -0.2232505 -0.555254 
-0.6614915 -0.04759106 -0.00227073 -0.9144252 -0.2591043 -0.3109528 
-0.6448205 -0.2038506 0.1866563 0.3314434 -0.895062 0.2983443 
-0.8041722 -0.1879193 0.2783432 0.08262204 -0.2055853 0.9751453 
0.2765353 0.2263748 -0.1059025 0.5048956 0.8319025 -0.2302579 
0.1936005 0.3007609 -0.06944331 0.4010641 0.6747189 -0.6195983 
0.1996467 0.292143 -0.07496908 0.4262694 0.6826861 -0.5934932 
0.2074343 0.2978081 -0.06357211 0.4367366 0.620371 -0.6514607 
0.1824634 0.3033742 -0.07350566 0.3648066 0.7051225 -0.6080448 
0.1851721 0.3107056 -0.06352947 0.3399675 0.6965168 -0.6318913 
0.1976051 0.308807 -0.05858235 0.3563015 0.6594463 -0.6619515 
0.1507222 -0.1177772 0.1616726 -0.02469688 0.01025353 0.9996425 
0.4673698 -0.2696903 0.2303979 0.5752308 0.08277418 0.8137924 
0.4693304 -0.2559161 0.2273901 0.5792108 0.1083769 0.8079414 
-0.3826003 0.2528036 -0.1884913 -0.08077876 0.555139 -0.8278258 
-0.3828767 0.2423895 -0.1950571 -0.09370054 0.529984 -0.8428151 
-0.6183214 0.1353844 -0.09341587 -0.7341229 0.01301095 -0.678892 
0.262823 -0.3568275 -0.07260826 -0.342494 -0.8244277 0.450574 
-0.3531865 0.342205 -0.00127185 0.486573 0.873125 -0.02999386 
-0.3545933 0.342267 -0.01549727 0.5150155 0.8549001 -0.06248976 
0.188749 -0.2952341 0.05867939 -0.05480118 -0.9901916 0.1285206 
0.1780348 -0.2929876 0.06887142 -0.046957 -0.9810609 0.1879221 
0.1657685 -0.2926887 0.06679373 -0.0691013 -0.9799088 0.1870932 
0.4539672 -0.01469085 0.2525763 0.1179562 -0.9049271 -0.4088928 
0.4669886 -0.01406551 0.2555675 0.2468761 -0.8316665 -0.4973761 
0.4573047 -0.01916593 0.2644245 0.03134533 -0.9561291 -0.2912641 
0.4713839 -0.0188741 0.2671592 0.1833311 -0.9077518 -0.3773279 
-0.6346077 0.4510279 0.05841556 0.1718459 0.328752 0.9286502 
0.1882702 -0.2374596 0.1728471 -0.6397341 -0.4379876 0.631591 
0.306061 0.0630542 0.1950913 -0.362783 -0.7769322 -0.5145531 
0.3211657 0.05971665 0.1900402 -0.3392479 -0.7514294 -0.5659195 
0.3165394 0.06733393 0.1831813 -0.3118553 -0.7637943 -0.5651236 
0.306098 0.07219612 0.1818664 -0.3025704 -0.7764552 -0.5527827 
0.2960519 0.06996632 0.1910581 -0.3274103 -0.8071081 -0.4913034 
-0.1338888 -0.1302138 0.2011607 -0.04262786 -0.284795 0.9576402 
-0.1328418 -0.1204358 0.2038714 -0.03639073 -0.2425362 0.9694596 
-0.1520202 0.08946513 0.2324815 -0.4236737 0.1010875 0.9001566 
-0.1627368 0.1005009 0.2257194 -0.3969092 0.1538145 0.9048781 
-0.1728006 0.09329104 0.2221653 -0.3864802 0.1092655 0.9158025 
0.2748677 -0.03896608 -0.3520296 0.131964 0.221037 -0.9662961 
0.487451 -0.2242297 -0.269918 0.5236155 -0.3068878 -0.794762 
0.4939808 -0.2315158 -0.2628165 0.5147721 -0.3098679 -0.7993695 
-0.2224624 -0.03632416 0.2082925 -0.01064343 -0.01664969 0.9998047 
0.3391399 -0.00753097 -0.3278792 0.244748 0.3954988 -0.8852566 
-0.457096 0.1525295 -0.2231248 -0.3685288 0.3857072 -0.845823 
-0.4576069 0.1394033 -0.2289112 -0.3866892 0.3874682 -0.8368632 
-0.4464389 0.1498018 -0.2291413 -0.3654243 0.4066631 -0.8373113 
-0.4473311 0.1606661 -0.2234179 -0.3384807 0.4110704 -0.8464348 
-0.4920937 0.4315338 -0.02750875 0.6290917 0.7773282 -0.002136713 
-0.01281043 -0.2774041 0.09011534 0.03979483 -0.6925935 0.7202296 
-0.02057422 -0.2675868 0.09927084 0.05750027 -0.6460257 0.7611469 
0.4642919 0.08950205 -0.04067788 0.6832283 0.7010009 0.2044432 
0.4738138 0.08096284 -0.04482718 0.7085696 0.6826751 0.1785609 
0.4684823 0.08861823 -0.05313757 0.7035253 0.6953899 0.1465775 
0.4587043 0.09768511 -0.05268233 0.6782974 0.7194678 0.1492606 
0.4525771 0.09882741 -0.03514437 0.6504647 0.7246898 0.2274212 
-0.3373016 0.2382694 0.1437531 -0.1680704 0.4807617 0.8605932 
-0.3243493 0.2294622 0.1504362 -0.1536047 0.4160435 0.8962775 
-0.3211988 0.2392557 0.1461482 -0.1267861 0.4599462 0.8788486 
0.3999078 0.2564568 -0.02591061 -0.08076845 -0.004454446 -0.9967229 
0.4210992 0.2465799 -0.02607546 -0.01414747 0.04508843 -0.9988828 
0.4133771 0.2586175 -0.02511684 0.0743136 0.201601 -0.9766445 
0.4272966 0.1784199 0.00641213 -0.3146356 -0.7864352 -0.5315301 
0.4239543 0.1732802 0.02110246 -0.278419 -0.9227343 -0.2665413 
0.3964547 -0.0372187 0.1659296 0.3031061 0.5513519 0.777263 
0.639949 0.2859575 0.127362 0.5060989 0.3919169 0.7682871 
0.09168621 -0.09972205 -0.3772881 -0.08635031 -0.0576092 -0.9945978 
-0.2455227 -0.1272765 -0.2895339 -0.2577091 -0.4826634 -0.8370317 
-0.2353028 -0.1238984 -0.2945377 -0.2549525 -0.4904348 -0.8333505 
-0.2337448 -0.1113332 -0.3016162 -0.2973779 -0.4204484 -0.8571986 
-0.2449855 -0.09965296 -0.3025602 -0.3098148 -0.3248737 -0.8935726 
-0.1732354 -0.1842399 -0.2702112 -0.2942903 -0.6519245 -0.6988474 
-0.6345624 0.00888161 -0.07720162 -0.7708423 -0.07953861 -0.6320409 
-0.6441391 0.01332929 -0.06508985 -0.8171781 -0.04127998 -0.5749052 
-0.6486154 0.00257934 -0.05775368 -0.8279323 -0.09143719 -0.553324 
-0.6646897 -0.02615786 -0.00962584 -0.9543628 -0.1833613 -0.2357338 
-0.6662012 -0.03336777 0.00246675 -0.9492077 -0.1747694 -0.2616497 
-0.6901096 -0.0680106 0.04854574 -0.6367818 -0.1773375 -0.7503735 
-0.687308 -0.05664364 0.04345973 -0.7224341 -0.1223111 -0.6805359 
-0.6046805 -0.1779757 0.2019219 0.3089864 -0.6735045 0.6715051 
-0.6059634 -0.1691328 0.2108261 0.3693813 -0.5843704 0.7225433 
-0.6164978 -0.167215 0.2177865 0.387068 -0.5755232 0.7203829 
-0.8184896 -0.1730897 0.2813908 0.04371098 -0.08915053 0.9950585 
-0.8073204 -0.1777708 0.2804229 0.08128656 -0.1518238 0.9850594 
0.3984355 0.154016 0.345917 0.1247185 0.2460541 0.9611986 
-0.02687887 0.2991195 -0.1427376 -0.01860625 0.9529433 -0.302577 
-0.01292716 0.2994244 -0.1425477 -0.007616359 0.9557791 -0.2939869 
0.2116068 0.2853893 -0.07333294 0.4879211 0.6590351 -0.5723686 
0.4711671 -0.3500821 0.07531376 0.01125379 -0.3513545 -0.9361749 
0.4688718 -0.3604521 0.07908583 -0.08532356 -0.2945687 -0.9518137 
0.4664622 -0.3376598 0.07033567 -0.0216847 -0.3288492 -0.9441335 
0.1389169 -0.09811402 0.1620996 0.04787901 -0.06554957 0.9967 
0.1488843 -0.1064412 0.1616289 -0.0006950898 -0.01655535 0.9998627 
0.5148852 0.06736966 0.2324126 0.5553571 -0.2850431 -0.7812356 
0.5105364 0.07606015 0.2263646 0.5400817 -0.2854345 -0.7917317 
0.5024117 0.07425201 0.2216829 0.5336466 -0.2507296 -0.8076857 
0.494094 0.07180662 0.2167507 0.5392357 -0.2360106 -0.8084083 
0.3378261 -0.462539 -0.221515 0.005394878 -0.930554 -0.3661149 
0.3414018 -0.4552529 -0.236016 0.09410861 -0.849098 -0.5197849 
0.3485069 -0.4602711 -0.2262154 0.1185002 -0.8609246 -0.4947389 
0.3552392 -0.4539641 -0.2344773 0.1602291 -0.8331721 -0.5292929 
0.3507713 -0.4648772 -0.2140599 0.04169712 -0.9449586 -0.3245222 
0.3596428 -0.4594552 -0.2242577 0.1468792 -0.8832368 -0.4453306 
0.2773631 -0.363842 -0.07454254 -0.3123786 -0.821485 0.4770556 
-0.3515237 0.3412986 0.01310081 0.4470406 0.8944814 0.00760638 
0.2008354 -0.2972948 0.03407696 -0.04316206 -0.9974347 0.05710526 
0.2012916 -0.2983882 0.01963427 -0.1226011 -0.9846484 0.1242435 
0.1886692 -0.2974818 0.01241888 -0.1426679 -0.9863796 0.08186031 
-0.3827552 -0.1169279 0.1843522 -0.04192181 -0.2703544 0.9618477 
-0.3882844 -0.1032692 0.188101 -0.007167981 -0.2836409 0.9589038 
-0.4042765 -0.0998364 0.18945 0.03612099 -0.3054673 0.9515172 
-0.1589942 0.2052084 -0.2579524 -0.07087012 0.6693919 -0.7395214 
-0.1697787 0.2108341 -0.2517543 -0.1020823 0.6790535 -0.7269564 
-0.1567442 0.2176271 -0.2466364 -0.06851494 0.6896115 -0.7209312 
-0.1688771 0.2197307 -0.2434748 -0.08684573 0.6889324 -0.7196041 
-0.1443981 0.2119907 -0.2525841 -0.03849516 0.6833075 -0.7291152 
-0.142777 0.2233493 -0.2417685 -0.0258213 0.7005229 -0.7131627 
-0.163561 0.227523 -0.2364737 -0.0685389 0.6963501 -0.7144222 
-0.152661 0.2277458 -0.2371267 -0.03457053 0.6991604 -0.7141286 
-0.2036711 0.2977187 -0.1379066 -0.0471067 0.9653669 -0.2566083 
-0.2111288 0.2998294 -0.1276286 -0.03384564 0.9901502 -0.1358572 
0.0292567 0.3472269 -0.00380157 -0.2123308 0.9274132 -0.3079294 
0.2106003 -0.2396679 0.198094 -0.7643142 -0.3061475 0.5675364 
0.2117807 -0.2520807 0.1905696 -0.7258618 -0.4637613 0.5079864 
-0.04263275 -0.2825641 -0.2229359 -0.2087644 -0.753429 -0.623508 
0.3276896 0.05113099 0.1967815 -0.3306701 -0.7600892 -0.5593941 
0.3353461 0.05653276 0.1860821 -0.2819077 -0.7281792 -0.6247265 
0.3289796 0.06614042 0.1783943 -0.277072 -0.7149116 -0.6419755 
-0.1223634 -0.1280269 0.2021592 -0.03595514 -0.2823237 0.9586452 
-0.1272399 -0.1363612 0.1993998 -0.0349705 -0.3383557 0.9403683 
0.1314783 0.1525664 0.2499832 -0.3696175 -0.5881289 0.719366 
0.1257156 0.163607 0.255853 -0.4454105 -0.5365151 0.7167712 
0.6280282 -0.2061555 -0.09534479 0.7925823 -0.1994251 0.5762316 
0.305307 0.2584781 -0.02297292 0.2402123 -0.302594 -0.922353 
0.3134412 0.2689958 -0.02548597 0.06337663 -0.2240382 -0.9725175 
0.3176602 0.2576146 -0.02074241 0.1481672 -0.3605222 -0.9209073 
0.323872 0.2677832 -0.0247938 0.02087827 -0.3386579 -0.9406779 
-0.1475487 0.1026521 0.232314 -0.4006046 0.1860166 0.8971698 
-0.1559033 0.1155044 0.2254952 -0.3810299 0.2438105 0.8918366 
-0.1705899 0.1123575 0.2199938 -0.3655739 0.1774044 0.9137196 
-0.1748125 0.1019505 0.2201337 -0.3718199 0.1345935 0.9184958 
0.4996601 -0.2211065 -0.263286 0.5125268 -0.3105313 -0.8005539 
-0.2168701 -0.02332893 0.208494 -0.01984483 -0.01552962 0.9996825 
-0.2318211 -0.00972265 0.2084342 -0.01059615 -0.004940518 0.9999317 
0.3550462 -0.00975719 -0.3242964 0.2615938 0.4009765 -0.8779445 
-0.4455206 0.1363266 -0.2361289 -0.3829255 0.3789752 -0.8424642 
-0.45843 0.1264569 -0.2342658 -0.4095039 0.3478172 -0.8434037 
-0.01437915 -0.2890331 0.07829457 0.05299884 -0.7649785 0.6418716 
0.09601835 0.3522618 0.1536942 -0.3945999 0.9185432 -0.02386077 
-0.2208389 0.1240829 0.2060967 -0.112229 0.1421041 0.9834689 
0.2363632 -0.1694115 0.2264221 -0.6116143 0.2978285 0.732957 
0.2875533 -0.3289157 -0.3351685 0.2187907 -0.3243636 -0.920282 
0.3035942 -0.3174439 -0.3344248 0.301176 -0.2990743 -0.9054544 
0.4764033 0.08158699 -0.05901282 0.7077466 0.6941376 0.1314069 
0.4684204 0.09056216 -0.06559847 0.6950114 0.7125188 0.09631357 
0.2011165 0.3953985 0.07564704 -0.3207732 0.9446959 -0.06822204 
0.1971643 0.3932104 0.06374086 -0.2842753 0.95035 -0.1265797 
0.1879355 0.3894524 0.05548693 -0.2750912 0.9542619 -0.1170856 
0.4368066 0.1712148 0.01515241 -0.2420739 -0.9178134 -0.3146726 
0.4407111 0.1750824 0.00373566 -0.2725317 -0.8349213 -0.4781557 
0.6621529 0.253024 0.1157537 0.5396131 -0.1007455 0.8358637 
0.659 0.2645779 0.1190899 0.554947 -0.04629996 0.8305963 
-0.1896789 -0.200868 -0.2513143 -0.1686917 -0.5613557 -0.8101993 
-0.6255027 0.00542376 -0.08749429 -0.7590019 -0.1072409 -0.6421959 
-0.6657522 -0.01549844 -0.01290454 -0.9658017 -0.1461367 -0.2141756 
-0.6674674 -0.0186597 -0.00081922 -0.9741845 -0.1021475 -0.2013218 
-0.701062 -0.07199374 0.05799997 -0.5854291 -0.1952886 -0.7868515 
-0.6992837 -0.08833723 0.06147283 -0.5430326 -0.2857857 -0.7895835 
-0.6119012 -0.2018626 0.1679878 0.1977521 -0.9385066 0.2830185 
-0.6196602 -0.197577 0.1825791 0.2350034 -0.8585417 0.4557188 
-0.5943654 -0.1719117 0.2028434 0.2809736 -0.6566664 0.6998879 
-0.8186408 -0.1593846 0.2818733 0.02131762 -0.02508506 0.999458 
-0.8039066 -0.1651985 0.2812145 0.04903013 -0.08112855 0.995497 
0.1713978 0.3116871 -0.06980243 0.3298872 0.7349623 -0.5924567 
-0.3739194 0.3344675 0.05855194 0.2082504 0.7603181 0.6152627 
-0.3640258 0.3259461 0.06584381 0.1870749 0.7468987 0.6380795 
-0.3602082 0.3333847 0.05442122 0.2547631 0.8498483 0.4613605 
-0.3704103 0.341974 0.04543403 0.2946403 0.8454271 0.4454662 
0.4799469 -0.3435547 0.073718 0.1089072 -0.3344087 -0.9361143 
0.5240592 0.06353422 0.2403822 0.5906935 -0.291265 -0.7524932 
0.5220224 0.07656638 0.2341 0.5964707 -0.2419753 -0.7652913 
0.3404001 -0.4442314 -0.2514242 0.212188 -0.7516268 -0.6245265 
0.3512811 -0.4476118 -0.2439368 0.2244286 -0.7453452 -0.6277677 
0.3288914 -0.452667 -0.2430706 0.08719752 -0.8610954 -0.5009106 
0.3277491 -0.4592694 -0.2295325 -0.02006163 -0.9313506 -0.3635705 
0.2786483 -0.3885782 -0.1084357 -0.3186465 -0.7276799 0.6074097 
0.2936137 -0.3938216 -0.1071237 -0.2864512 -0.7243266 0.6271337 
0.2934743 -0.3865736 -0.09874439 -0.2896878 -0.7313822 0.6173825 
0.2814832 -0.3796078 -0.0958347 -0.3188813 -0.7543263 0.5738524 
-0.3442281 0.3350928 -0.0250985 0.5014453 0.8607852 -0.08718657 
-0.3454907 0.3372476 -0.01034051 0.4891385 0.8682957 -0.08249928 
-0.3422424 0.3365031 0.00153791 0.4345506 0.8982822 -0.06522962 
-0.3355257 0.3319959 -0.01136846 0.4306162 0.8957818 -0.1102036 
0.1972167 -0.2965456 0.04738605 -0.01969004 -0.9977776 0.06365602 
-0.4605026 0.01108043 0.2072587 -0.008137448 0.08804335 0.9960834 
-0.4646013 -0.0023436 0.2080504 -0.002345377 0.04856219 0.9988174 
-0.1819902 0.2177736 -0.2432719 -0.1217912 0.6855622 -0.7177544 
-0.2011066 0.2937237 -0.1505002 -0.0909506 0.9168842 -0.3886533 
0.043854 0.3571096 0.04875752 -0.1587793 0.9803681 0.1169087 
0.2125954 -0.2286964 0.2056283 -0.739906 -0.2520236 0.6237173 
-0.6815084 0.2651604 -0.03365355 -0.7946566 -0.6070459 -0.004006795 
-0.674071 0.2581339 -0.02585415 -0.7733337 -0.590812 0.2299917 
-0.6813643 0.2694806 -0.01925052 -0.7499437 -0.5932878 0.2925649 
-0.4324086 0.2051703 0.1390586 -0.2020725 0.4308966 0.8794856 
-0.4375424 0.2147482 0.133 -0.2200839 0.4444298 0.8683578 
-0.4460887 0.2024045 0.1371438 -0.2137524 0.4416006 0.8713776 
-0.4212465 0.2134629 0.137452 -0.19559 0.4304873 0.88115 
0.3415615 0.04750638 0.1937521 -0.2300629 -0.7529975 -0.6164948 
0.1346824 0.1416128 0.2412668 -0.3112653 -0.6088066 0.7297044 
0.1336033 0.1299862 0.2308632 -0.1953433 -0.5529256 0.8100088 
0.6094466 -0.1806248 -0.06550031 0.7666966 -0.12251 0.6302123 
0.6269395 -0.1854048 -0.08862896 0.8001609 -0.113732 0.5889036 
0.6207909 -0.1774195 -0.07909004 0.7802848 -0.1102194 0.6156358 
0.3107171 0.2800674 -0.02820127 0.0654266 -0.1637205 -0.9843348 
0.3209323 0.27885 -0.027276 0.06807872 -0.066868 -0.9954366 
-0.1397706 0.09049903 0.2379839 -0.3959147 0.1207407 0.910315 
0.399766 0.1397594 -0.1302056 0.5616407 0.7911671 -0.2421041 
0.3957924 0.1383336 -0.143493 0.54169 0.7981694 -0.2636241 
-0.2064667 -0.0406825 0.2084137 -0.01747736 -0.01812064 0.999683 
-0.4583276 0.1130233 -0.2397128 -0.4139717 0.3120456 -0.8551345 
-0.4476634 0.1226429 -0.2411491 -0.391194 0.3542158 -0.8494107 
-0.00826985 -0.2659943 0.0998059 0.04497353 -0.6356076 0.7707012 
-0.2093993 0.1184822 0.2083106 -0.1369235 0.1137326 0.984031 
0.4781733 0.08177757 -0.07522947 0.6946545 0.7176203 0.04976358 
0.4586412 0.1003056 -0.06928537 0.6856881 0.7238547 0.07659183 
0.6665982 0.264398 0.1135125 0.583725 0.001446232 0.8119501 
0.6617884 0.2751551 0.1151182 0.5797851 0.1695386 0.7969353 
-0.1935787 0.05837901 -0.3317781 -0.2909423 0.2021601 -0.9351385 
-0.5899081 -5.306e-05 -0.1364615 -0.8559276 -0.07820257 -0.511148 
-0.5974206 0.00367399 -0.1245032 -0.8405114 -0.0839495 -0.5352505 
-0.5910385 0.01391532 -0.1360428 -0.8414317 -0.033919 -0.539298 
-0.6635462 -0.01121514 -0.02447541 -0.9572343 -0.1171145 -0.2645501 
-0.6981401 -0.05785621 0.05313206 -0.6078376 -0.07940846 -0.7900808 
-0.6075786 -0.2033158 0.151075 0.116367 -0.9931683 -0.008687752 
-0.6002567 -0.2013433 0.1623453 0.1803469 -0.9432924 0.2787012 
-0.6017718 -0.1986228 0.1719257 0.2375964 -0.9192669 0.3138412 
-0.6079907 -0.1962214 0.1794889 0.2386819 -0.8465695 0.4757636 
-0.5941128 -0.1610045 0.211564 0.345422 -0.5504616 0.7600499 
-0.582248 -0.1652771 0.203204 0.3067925 -0.6031811 0.7362411 
0.2189251 0.2143313 0.3201925 -0.2681457 0.0154341 0.9632547 
0.411052 0.1539958 0.3439925 0.1654807 0.2638005 0.9502766 
0.2335486 0.2724596 -0.0677849 0.5232686 0.6358466 -0.5673528 
0.240749 0.2642503 -0.07053665 0.5437298 0.6867087 -0.4824821 
0.243485 0.2697558 -0.06108265 0.5264737 0.6115183 -0.5906529 
0.2363609 0.2785534 -0.05891718 0.5114024 0.5544222 -0.6565695 
0.2221638 0.2747906 -0.07649527 0.5337251 0.6561425 -0.5334929 
0.2260516 0.2819541 -0.06473942 0.521889 0.6182472 -0.5877094 
-0.3697778 0.3179322 0.07581344 0.1380962 0.7076796 0.6929062 
0.4667337 -0.37051 0.08239682 -0.1377589 -0.2675423 -0.9536475 
0.1124976 -0.09175935 0.1673107 0.2454797 -0.2750444 0.9295647 
0.4843827 -0.2410222 0.2139825 0.5628096 0.1645118 0.8100502 
0.4966287 -0.2376311 0.2049179 0.5289941 0.2097431 0.8222975 
0.5048487 -0.2456259 0.2020966 0.476633 0.2124877 0.8530357 
0.5233898 0.05130251 0.24472 0.5686184 -0.311396 -0.761384 
0.535967 0.05808004 0.2522584 0.6639571 -0.2302716 -0.7114323 
0.5324448 0.07377556 0.2435928 0.6724544 -0.1991731 -0.7128361 
0.3546984 -0.4365998 -0.2536547 0.3248105 -0.6257789 -0.7091537 
0.3262697 -0.4447805 -0.2553236 0.1364227 -0.7775793 -0.6138071 
0.3049723 -0.3936715 -0.1020668 -0.2615674 -0.7324988 0.6285126 
0.3052808 -0.3855932 -0.09242068 -0.2555308 -0.7534541 0.6058143 
0.294332 -0.3783905 -0.08750001 -0.2731054 -0.7886147 0.5509087 
-0.3583596 0.3432246 -0.03091752 0.5336879 0.8403186 -0.09508904 
0.3875164 0.3689066 0.08510461 0.3977972 0.9174669 -0.003458715 
0.3792381 0.3719619 0.08435468 0.3699554 0.9290465 -0.002391629 
-0.3866525 -0.1626244 0.1637641 -0.09680215 -0.5942812 0.7984104 
-0.3793926 -0.152725 0.1714634 -0.09551001 -0.4851668 0.8691899 
-0.4603739 0.02831013 0.2050088 -0.004025799 0.1991896 0.9799527 
-0.1901673 0.2963239 -0.1453397 -0.07256016 0.9415252 -0.3290372 
-0.6696412 0.4697929 0.05538949 -0.01448786 0.4538995 0.8909352 
-0.6670184 0.4884329 0.04224871 0.02470975 0.6468459 0.7622204 
-0.4501779 0.2140228 0.1300693 -0.2345798 0.4466667 0.863401 
-0.4456969 0.2261116 0.1249442 -0.2319496 0.4440523 0.8654577 
-0.42889 0.2258388 0.1294534 -0.2165124 0.4438009 0.8695764 
0.3454946 0.06274212 0.1758483 -0.1834062 -0.6927942 -0.6974227 
0.3478685 0.05270804 0.1853669 -0.2006168 -0.7223793 -0.661756 
-0.131871 -0.1096477 0.2061065 -0.02904598 -0.1776406 0.9836667 
-0.1187519 -0.1153425 0.2051494 -0.01938783 -0.2109656 0.9773012 
0.07217907 0.05221372 -0.3482533 0.1447502 0.4522347 -0.8800746 
0.6016947 -0.1942418 -0.05964043 0.7470977 -0.176169 0.6409444 
-0.07672408 0.218343 -0.2470427 7.545477e-05 0.7058353 -0.708376 
-0.08937746 0.2255767 -0.2398136 -0.0008292287 0.7062777 -0.7079344 
-0.07771153 0.2273742 -0.2380479 -0.0002415527 0.7067261 -0.7074873 
-0.06677338 0.2294003 -0.2360119 0.000700791 0.706937 -0.7072762 
-0.06129538 0.2182561 -0.2471119 0.0009165066 0.7055692 -0.7086405 
0.4059897 0.1319384 -0.1414368 0.5520204 0.7938123 -0.2552168 
0.4147492 0.1298313 -0.1273923 0.5796763 0.7847345 -0.2194702 
0.4255576 -0.2126007 -0.3146186 0.4638782 -0.2465165 -0.8509093 
0.4417629 -0.2141956 -0.3047247 0.5052875 -0.274443 -0.8181477 
-0.4354162 0.1475268 -0.235269 -0.345684 0.4204487 -0.8388835 
-0.4361035 0.1616178 -0.2276054 -0.3399902 0.4277629 -0.8375115 
-0.00066567 -0.2854835 0.08133087 0.05667616 -0.7640347 0.6426809 
-0.0045166 -0.294629 0.07007517 0.07478848 -0.8329391 0.5482876 
0.1099951 0.3577946 0.1083044 -0.3290665 0.9338188 0.1403488 
0.1213013 0.361848 0.1085094 -0.3561653 0.9295127 0.0956679 
-0.2121699 0.1278076 0.2066257 -0.1405614 0.1649046 0.9762422 
-0.2169379 0.1374927 0.204124 -0.1524247 0.196337 0.9686168 
0.3016133 -0.2756388 -0.346561 0.2741268 -0.2187455 -0.9364854 
0.315253 -0.2816004 -0.3406377 0.3141643 -0.2415261 -0.9181318 
0.3202093 -0.2971328 -0.3345455 0.3370075 -0.2613273 -0.9045076 
0.3097476 -0.3045595 -0.3364126 0.3138234 -0.2789497 -0.9075803 
0.4799815 0.07057261 -0.03464885 0.720898 0.6465351 0.2495966 
0.4830177 0.0720782 -0.04894206 0.7199701 0.6650045 0.1985247 
0.2136115 0.399739 0.07655825 -0.296551 0.9535916 -0.05216086 
0.2099916 0.3968624 0.06156943 -0.271379 0.9525313 -0.1379768 
0.4338502 0.1691315 0.02912603 -0.2214431 -0.9751668 -0.003566653 
0.4216399 0.1721176 0.0363008 -0.2285326 -0.9631394 0.1418993 
0.6167101 -0.4251733 0.1349414 0.9925852 -0.09284976 -0.07844546 
0.7487433 0.2595871 0.00444034 0.9194322 0.2290527 -0.3196551 
0.02567378 -0.02295968 -0.3762338 -0.03886072 -0.02301206 -0.9989797 
0.02147743 -0.01268142 -0.3761979 -0.04052183 0.002150667 -0.9991764 
-0.1950355 0.07200673 -0.3279123 -0.2830675 0.25454 -0.9247066 
-0.1351371 -0.2735222 -0.2135353 -0.03935827 -0.6251002 -0.7795516 
-0.6270285 0.01759115 -0.08747297 -0.7701197 -0.06654346 -0.6344191 
-0.6352307 0.02177083 -0.07761911 -0.7877591 -0.02869002 -0.615315 
-0.6601074 -0.0062386 -0.03579008 -0.9305346 -0.1136635 -0.3481178 
-0.6836703 -0.04438215 0.03721654 -0.7413508 -0.07901542 -0.66645 
-0.6947991 -0.04285631 0.04852311 -0.6722331 -0.03767649 -0.7393803 
-0.5899236 -0.2004202 0.1534483 0.1359343 -0.9864804 0.09153306 
-0.6211038 -0.1583864 0.2265076 0.3979527 -0.486863 0.777559 
-0.9187446 -0.1449302 0.2720095 -0.3797524 0.2500624 0.8906497 
-0.9151462 -0.1558862 0.2757967 -0.3084263 0.107809 0.9451193 
0.2197362 0.2470469 0.3172481 -0.2925654 0.1622793 0.9423752 
0.2090292 0.2586318 0.3108298 -0.3370306 0.2650611 0.9034119 
0.4044829 0.1649458 0.3418501 0.1854925 0.3506987 0.9179341 
0.4233432 0.1548772 0.3407585 0.2394507 0.3252462 0.9148106 
0.4152221 0.1676771 0.3380711 0.2403138 0.3820895 0.8923323 
0.2508724 0.258116 -0.06753298 0.5650499 0.6795505 -0.4678994 
0.4582017 -0.3767157 0.08652956 -0.2771059 -0.3280353 -0.9031086 
0.4097513 0.2323102 0.1449853 0.8254399 -0.3682878 0.4278003 
0.40353 0.209942 0.1516231 0.912217 -0.2195106 -0.3459413 
0.4056609 0.2225155 0.1548117 0.9735573 -0.04458233 -0.2240505 
0.1181746 -0.08000647 0.1687767 0.3501829 -0.2661054 0.8980868 
0.1274797 -0.08884703 0.1641037 0.2015042 -0.1690563 0.9647881 
0.4726882 -0.2426839 0.2229427 0.5899855 0.1270336 0.7973579 
0.362735 -0.4449449 -0.2422683 0.3076146 -0.7023687 -0.6419125 
0.3193683 -0.3926507 -0.09555359 -0.2195769 -0.7304063 0.6467554 
0.314337 -0.4017283 -0.1070559 -0.2437592 -0.6948472 0.6765862 
0.2133744 -0.2985478 0.02769405 -0.08473526 -0.9805619 0.1769701 
0.2009176 -0.3006573 0.0049966 -0.2019563 -0.9592553 0.1975928 
0.2138378 -0.301054 0.01348244 -0.152448 -0.9574842 0.2449155 
-0.3725591 -0.1631795 0.1654965 -0.1032262 -0.5616984 0.8208772 
-0.3800739 -0.1706324 0.1581177 -0.1212462 -0.668698 0.7335819 
-0.3929024 -0.1719319 0.1543794 -0.1125724 -0.6869998 0.7178849 
-0.4507449 -0.00211014 0.2080192 -0.003383341 0.04537645 0.9989643 
0.05706125 0.3593609 0.04544546 -0.1784481 0.9766073 0.1199775 
-0.6786152 0.4913893 0.03915856 -0.06225304 0.7197444 0.6914424 
0.1783302 -0.1883886 0.175299 -0.5445904 0.005654097 0.8386831 
0.1879009 -0.1865114 0.1826435 -0.6159046 0.07364279 0.7843713 
-0.670656 0.2628174 -0.01094942 -0.6644716 -0.5958701 0.451017 
-0.6783031 0.2736567 -0.00712113 -0.6785561 -0.6055021 0.4158472 
-0.6690956 0.2725513 0.00212323 -0.5963291 -0.5590266 0.5760911 
-0.659413 0.2617442 0.001354 -0.5989818 -0.559365 0.5730023 
-0.4618736 0.2069641 0.1304145 -0.2589835 0.4478622 0.8557727 
-0.4581775 0.2192304 0.1250623 -0.2467003 0.4427627 0.8620327 
0.3611484 0.05420291 0.1815034 -0.1061981 -0.6974368 -0.708734 
0.3354343 0.07500242 0.1672268 -0.1890722 -0.6442688 -0.7410597 
0.3593998 0.06477538 0.171809 -0.02668605 -0.6269829 -0.7785758 
0.3504068 0.07369814 0.1653129 -0.07352603 -0.5555571 -0.8282212 
-0.1397777 -0.09874175 0.2073761 -0.0375571 -0.1185194 0.9922412 
0.146963 0.1317324 0.2381461 -0.3560197 -0.6685393 0.6529205 
0.1440495 0.1191421 0.2256982 -0.2057863 -0.575972 0.7911437 
0.1294986 0.1164049 0.2218313 -0.04833978 -0.4079834 0.9117088 
0.6286405 -0.1744178 -0.08903657 0.805912 -0.07491957 0.5872758 
0.625297 -0.1639525 -0.08334654 0.8101442 -0.0517281 0.583944 
0.6158215 -0.1674533 -0.07110529 0.7854307 -0.07692709 0.6141506 
-0.1035531 0.2186289 -0.246717 -0.003668182 0.7030976 -0.7110839 
-0.1043678 0.229118 -0.2362684 0.0003436353 0.7071015 -0.707112 
0.3984117 0.1341349 -0.1510174 0.5389792 0.7957627 -0.2761579 
0.4084387 -0.217121 -0.3221397 0.4215384 -0.2364806 -0.8754326 
-0.4269091 0.1549439 -0.2349025 -0.3216282 0.4464129 -0.8350275 
-0.415323 0.1554216 -0.238843 -0.2940922 0.4627877 -0.8362639 
-0.423381 0.1664586 -0.2298044 -0.2990527 0.4556892 -0.8384002 
-0.5496289 0.4719775 -0.02615253 0.5186476 0.8505669 0.08683767 
-0.5359797 0.4628796 -0.02278472 0.5313436 0.8316622 0.161283 
-0.5395924 0.4659956 -0.03753639 0.5441571 0.8319522 -0.1083909 
0.00516014 -0.2744989 0.09167727 0.05254602 -0.691579 0.720387 
-0.193973 0.02078933 0.2121946 -0.1980561 -0.06866686 0.9777825 
-0.1978537 0.03254102 0.2122249 -0.2433716 -0.05755486 0.968224 
0.2886443 -0.2692306 -0.3514934 0.2280557 -0.1975243 -0.9534017 
0.2882929 -0.2546774 -0.3543229 0.2280356 -0.1877494 -0.9553795 
0.3002638 -0.2615132 -0.3499751 0.262179 -0.1947267 -0.9451686 
0.4860384 0.07230689 -0.06317808 0.7078543 0.6933762 0.1348031 
0.2249951 0.4033255 0.07981147 -0.2461867 0.9685127 -0.03708343 
0.2168859 0.4013661 0.08788292 -0.2877712 0.9572297 0.02998628 
0.2235991 0.4013768 0.06551719 -0.2468202 0.9601758 -0.1309279 
0.2351864 0.404812 0.07077949 -0.1671426 0.9813685 -0.0947594 
0.4300112 0.2358407 -0.02702336 -0.0621328 -0.02915269 -0.997642 
0.6156524 -0.4225516 0.122722 0.9523806 -0.07779746 -0.2948199 
0.6523845 0.2892319 0.1161009 0.544638 0.4370843 0.7157701 
0.03720035 -0.0294966 -0.3764667 -0.04246556 -0.03688903 -0.9984167 
0.03576623 -0.01443595 -0.3764322 -0.01941309 0.01648185 -0.9996758 
-0.1818985 0.06510533 -0.3336044 -0.2583326 0.2597846 -0.930471 
-0.2234487 -0.1219676 -0.2995232 -0.2979133 -0.4881748 -0.820325 
-0.16247 -0.1856109 -0.273558 -0.3004696 -0.6626492 -0.6860132 
-0.1534341 -0.1928243 -0.2704187 -0.2970825 -0.6862082 -0.6639732 
-0.6669945 -0.00251036 -0.0134577 -0.9751855 -0.07604201 -0.2079202 
-0.6680236 -0.00811224 -0.0040953 -0.97836 -0.07634295 -0.1923109 
-0.6647826 0.00500686 -0.02524369 -0.9592513 -0.04324052 -0.2792259 
-0.6690516 0.00279493 -0.00017219 -0.9869183 -0.0262193 -0.1590747 
-0.7404456 -0.04884174 0.08239193 -0.5338349 0.01408423 -0.8454714 
-0.6320944 -0.1522175 0.2352555 0.382574 -0.4419319 0.8113775 
-0.9143505 -0.1312632 0.2684171 -0.4295525 0.3829346 0.81783 
0.2245961 0.2318075 0.3209519 -0.2450852 0.09651744 0.9646853 
0.2534952 0.2670924 -0.05437004 0.5935518 0.5389987 -0.5976428 
-0.3783146 0.31044 0.08380461 0.05966066 0.6609164 0.7480843 
0.491084 -0.334682 0.07240467 0.1385706 -0.2902889 -0.9468529 
0.421865 0.2293955 0.124662 0.4234411 -0.705039 0.5688739 
0.4172637 0.2339313 0.134938 0.5980608 -0.5159538 0.6132822 
0.1316081 -0.07668678 0.1652715 0.2899787 -0.1833341 0.9393088 
0.1232976 -0.06844417 0.1704874 0.4505931 -0.3088209 0.837613 
0.4880597 -0.2273909 0.2083353 0.5726207 0.1980388 0.7955415 
0.5091999 -0.2355073 0.1967629 0.5205555 0.2552488 0.8147823 
0.5012253 -0.223328 0.1978617 0.534175 0.2576414 0.8051572 
0.3260982 -0.4629571 -0.2168611 -0.09619518 -0.9794691 -0.177163 
0.335121 -0.465611 -0.2061174 -0.1045512 -0.9807581 -0.1648715 
-0.3700077 0.2485382 -0.1922178 -0.06216647 0.5598354 -0.8262685 
-0.3729486 0.2346686 -0.2008147 -0.08688942 0.5331829 -0.8415261 
-0.3758966 0.2605686 -0.1837599 -0.06579212 0.579924 -0.8120096 
-0.362961 0.2584781 -0.1859538 -0.0281359 0.5912687 -0.8059838 
-0.3541311 0.2501152 -0.1921747 -0.04508448 0.5711369 -0.8196157 
-0.3592184 0.2385017 -0.1996143 -0.07643635 0.5540531 -0.8289649 
0.2129504 -0.2969279 0.04406411 -0.01300558 -0.9945824 0.1031349 
-0.3646893 -0.1513992 0.1737817 -0.08988271 -0.461393 0.8826311 
-0.3742493 -0.1432912 0.176732 -0.09034079 -0.3671942 0.9257467 
-0.4498384 0.01989837 0.2066109 -0.01216009 0.09858896 0.995054 
-0.4443985 0.00954745 0.2075457 -0.01288159 0.08238825 0.9965171 
-0.1908868 0.299827 -0.1306944 -0.03136224 0.9830098 -0.1808542 
-0.08712503 0.1705251 -0.2926982 -0.02147212 0.6407713 -0.7674315 
-0.45929 0.1922561 0.1388732 -0.2339977 0.4466649 0.8635598 
0.3553524 0.04497046 0.1921557 -0.1695433 -0.7404371 -0.6503906 
-0.1013745 -0.1165801 0.2050602 -0.03203693 -0.2448391 0.9690344 
-0.1116087 -0.1024914 0.20766 -0.04341359 -0.186216 0.9815493 
-0.1003299 -0.1035956 0.2080482 -0.04243737 -0.2366434 0.9706694 
-0.09207775 -0.1100563 0.2070024 -0.05373565 -0.2658556 0.9625141 
-0.08603276 -0.1203655 0.2044291 -0.0180426 -0.2625186 0.9647583 
0.1451405 0.1462725 0.2525485 -0.4328659 -0.6360415 0.6388102 
0.6259223 -0.1114178 -0.08904073 0.8326072 0.1729906 0.5261555 
0.617451 -0.1054014 -0.07762328 0.8198156 0.1740979 0.5455203 
0.6204205 -0.1181083 -0.07823195 0.8222623 0.1230438 0.5556483 
0.6137525 -0.1177403 -0.06898198 0.7941648 0.1211147 0.5955113 
0.6257436 -0.1283937 -0.08454898 0.8309165 0.07692592 0.5510538 
0.6183217 -0.1273074 -0.0735975 0.8047106 0.07538541 0.5888616 
-0.1298699 0.09106005 0.2421466 -0.3433151 0.1250693 0.9308558 
-0.1325535 0.1040386 0.2384939 -0.353781 0.2065884 0.9122282 
0.4076084 0.1269059 -0.1534239 0.5489607 0.790534 -0.2714742 
0.4175425 0.123591 -0.1414662 0.572362 0.7854822 -0.2354134 
-0.2164281 -0.00789546 0.2086714 -0.04040499 -0.01884412 0.9990057 
-0.2069384 -0.01629531 0.2088154 -0.05949501 -0.02695381 0.9978647 
-0.2008696 -0.02770276 0.2087673 -0.04084863 -0.03203916 0.9986516 
0.438442 -0.2022998 -0.3106344 0.4914199 -0.2646507 -0.8297388 
0.4246976 -0.1992076 -0.3190644 0.4517029 -0.2449102 -0.8578948 
0.4510215 -0.2030585 -0.302782 0.5142306 -0.2764265 -0.8118837 
0.4473457 -0.193134 -0.3083095 0.4939452 -0.2548164 -0.8313164 
0.4363587 -0.1904087 -0.315354 0.4722297 -0.2414715 -0.8477562 
-0.4341512 0.137613 -0.2407394 -0.3610525 0.3915152 -0.8463787 
0.238462 -0.1563472 0.2223168 -0.614913 0.3329975 0.7148389 
-0.3104298 0.2105149 0.1595231 -0.1313115 0.3328293 0.9337997 
0.4513384 0.16906 0.01032297 -0.2528597 -0.886736 -0.38699 
0.6153844 -0.4095755 0.1277319 0.9887376 0.1091065 -0.1024395 
0.4270584 -0.05749173 0.1633906 0.4863544 0.5360637 0.6899965 
0.3966441 -0.01494933 0.1503564 0.3488995 0.5419546 0.7645616 
0.3904609 -0.02362671 0.1589206 0.3089102 0.5412236 0.7820815 
0.4031036 -0.02665337 0.1556016 0.3499653 0.5426942 0.7635492 
0.4086507 -0.03680537 0.1599091 0.4111249 0.5392039 0.7350072 
0.4157557 -0.0312023 0.1517994 0.4609791 0.5224097 0.7173468 
0.4101991 -0.01925288 0.1462858 0.4151099 0.5540516 0.7216027 
-0.2208056 -0.1091665 -0.3072692 -0.3290655 -0.3815733 -0.863781 
-0.2113242 -0.1208682 -0.3046718 -0.3325261 -0.4586841 -0.824036 
-0.583856 0.02333716 -0.1477924 -0.8385924 -0.01118494 -0.5446446 
-0.6791559 -0.03343805 0.03025808 -0.8531637 -0.0556289 -0.5186688 
-0.5919295 -0.197029 0.1688924 0.2419075 -0.898422 0.3664953 
-0.6069699 -0.1591201 0.2190695 0.3755752 -0.4847572 0.7899074 
-0.6076536 -0.1488776 0.2256591 0.3651047 -0.4235789 0.8290232 
-0.6187621 -0.1449528 0.2326387 0.3708287 -0.3725761 0.8506898 
0.01691541 0.2892522 -0.1652796 0.07934138 0.8744241 -0.4786308 
0.02495553 0.2823365 -0.1759839 0.08682484 0.8332466 -0.5460417 
0.010363 0.2953686 -0.1529524 0.05744481 0.9242333 -0.3774827 
0.03052645 0.2886042 -0.1639557 0.1205021 0.8914926 -0.4367153 
0.0229056 0.2938678 -0.1545574 0.09865499 0.9078591 -0.4075034 
-0.3531032 0.3157012 0.07482182 0.1195606 0.7519982 0.6482315 
-0.3657685 0.3098551 0.08298691 0.09593037 0.6992748 0.7083871 
0.4290523 0.2400752 0.1320949 0.3415931 -0.6782855 0.6505712 
0.4317967 0.2330558 0.122228 0.3302167 -0.7582179 0.5621944 
0.4389435 0.2381563 0.1252386 0.2326435 -0.7606987 0.6059822 
0.4439748 0.2471267 0.1332452 0.1787073 -0.6949567 0.6964905 
0.4198556 0.2442763 0.1422871 0.6509913 -0.5210482 0.5520138 
0.432422 0.2524593 0.14119 0.4110654 -0.5029054 0.7603365 
0.14237 -0.08585492 0.1625999 0.07585222 -0.06202596 0.9951881 
0.4771668 -0.2304962 0.2173473 0.5937149 0.1479039 0.790966 
0.3139975 -0.4597756 -0.2223129 -0.1514804 -0.9638367 -0.2192546 
0.3190956 -0.4565917 -0.236014 0.0126448 -0.9161708 -0.4005885 
0.3175614 -0.4621913 -0.2046848 -0.2273661 -0.9735498 0.02248294 
0.3024388 -0.4583725 -0.2088125 -0.261822 -0.9636976 0.05230928 
0.2984044 -0.4569479 -0.2240716 -0.14756 -0.9739193 -0.1723583 
-0.3858521 0.2300637 -0.2022043 -0.1130029 0.5059951 -0.8551019 
-0.6129649 0.172344 -0.09827413 -0.6693276 0.001293548 -0.7429664 
-0.6043053 0.182359 -0.1054845 -0.5967811 -0.008098502 -0.8023632 
-0.6147146 0.1858847 -0.09707229 -0.6399591 -0.03276554 -0.7677101 
-0.5935042 0.1794764 -0.1136476 -0.5914121 0.02975409 -0.8058204 
-0.596058 0.1908898 -0.1115306 -0.5964515 -0.01456907 -0.8025169 
-0.6050712 0.195783 -0.1053166 -0.5858566 -0.04868038 -0.8089514 
0.3147825 -0.3830895 -0.08551213 -0.2178753 -0.7882672 0.5754697 
0.3044816 -0.38045 -0.08596738 -0.2323458 -0.7777361 0.5840737 
-0.3501063 0.3393821 0.02830689 0.3407103 0.9230201 0.178747 
-0.3622737 0.3429257 0.03515184 0.3570914 0.8810596 0.3101932 
0.2040372 -0.2954462 0.05877909 -0.0100349 -0.9930483 0.1172795 
0.3839919 0.3685219 0.07287147 0.3386589 0.9162829 -0.2138592 
-0.3582501 -0.1638894 0.1669062 -0.09110492 -0.5932958 0.7998125 
-0.366339 -0.1750396 0.1562026 -0.1255303 -0.6856877 0.7169899 
-0.4639164 0.04159242 0.2017766 -0.01842843 0.2949395 0.9553382 
-0.4502791 0.04218679 0.2019347 -0.03310339 0.2687667 0.9626363 
-0.4447713 0.03020522 0.2051273 -0.02368948 0.1859701 0.9822698 
0.4827628 -0.01824161 0.2711486 0.1999922 -0.9246088 -0.3241941 
-0.1459454 0.1996339 -0.2638566 -0.04754546 0.6669446 -0.743589 
-0.1807872 0.2991933 -0.1365708 -0.01476658 0.9762419 -0.2161797 
0.07061154 0.3617241 0.04245561 -0.1861807 0.9819307 0.03389532 
0.1710405 -0.1767727 0.1701794 -0.4514583 0.0412095 0.8913401 
0.1828696 -0.1758722 0.1776165 -0.5804961 0.07579968 0.8107272 
0.1760813 -0.1636345 0.1718588 -0.4683736 0.09406736 0.8785087 
-0.08505961 0.161619 -0.3002546 -0.0162595 0.6139069 -0.789211 
0.3559741 0.03007777 0.2141912 -0.2921224 -0.8859234 -0.3602837 
0.3488131 0.03886354 0.2021103 -0.2327347 -0.8016849 -0.5505776 
0.3628148 0.03612156 0.2011987 -0.1947362 -0.7688691 -0.6090306 
-0.12524 -0.10032 0.2075693 -0.03642342 -0.1446832 0.9888074 
0.1566004 0.1192958 0.2298589 -0.2592171 -0.6899847 0.6758164 
0.1589029 0.1266046 0.2394697 -0.3841442 -0.7224458 0.574896 
0.1575581 0.1351497 0.2495573 -0.4377043 -0.7103853 0.5511513 
0.09416495 0.03776889 -0.3517871 0.1724015 0.420673 -0.8906806 
0.09502852 0.04857006 -0.346318 0.1572803 0.4283987 -0.8897963 
0.610783 -0.09485628 -0.07142523 0.8083311 0.2218901 0.5453124 
0.6171389 -0.09087076 -0.08328567 0.8303976 0.262908 0.4912426 
0.6225561 -0.09844278 -0.08861931 0.8316123 0.2361123 0.5026649 
0.302702 0.2886542 -0.0295918 0.1483291 -0.02859823 -0.9885245 
-0.4942997 0.2453793 0.1034699 -0.1875735 0.3022519 0.9345908 
-0.4944951 0.2574597 0.09971478 -0.1748691 0.2688445 0.9471766 
-0.1208388 0.087065 0.2458445 -0.3249825 0.1280646 0.937009 
0.2829829 -0.1138358 -0.363369 0.2406406 0.1558895 -0.9580139 
0.2808305 -0.1012336 -0.3617368 0.2391907 0.1545293 -0.9585972 
0.2923344 -0.1006178 -0.359075 0.211281 0.1387834 -0.9675224 
0.2953254 -0.1160251 -0.3605113 0.2159568 0.1354694 -0.9669595 
-0.1164733 0.2235411 -0.2418334 -0.001677675 0.7048026 -0.7094015 
0.4110698 -0.2054241 -0.3240525 0.4202514 -0.2371222 -0.8758778 
-0.4384953 0.129574 -0.2424789 -0.3729694 0.3671899 -0.8520948 
0.1187427 0.3611619 0.1517761 -0.3555155 0.9346637 -0.003574613 
-0.1858221 0.03050062 0.2153658 -0.2911011 -0.1231115 0.948738 
-0.1779916 0.01556861 0.2159389 -0.2840751 -0.1425934 0.9481395 
0.2497837 -0.1481879 0.22704 -0.5686402 0.3895049 0.7245235 
0.4893557 0.07097045 -0.07636496 0.6881892 0.7223253 0.06813187 
-0.3148429 0.2225882 0.1546673 -0.1256047 0.3624215 0.9235119 
-0.3003325 0.2017672 0.1638916 -0.1459756 0.3291047 0.9329422 
-0.2947092 0.2107233 0.1616151 -0.1270308 0.3341262 0.9339287 
-0.3021978 0.2219331 0.1564765 -0.1146837 0.3580341 0.9266387 
0.4354737 0.2485072 -0.02584057 0.03675892 0.1844517 -0.982154 
0.4275455 0.2604792 -0.02343591 0.1012534 0.2246947 -0.9691543 
0.4462237 0.1666849 0.02441654 -0.2429617 -0.9637671 -0.110103 
0.615139 -0.4141649 0.143516 0.9654505 0.05492944 0.2547314 
-0.1692927 0.05671382 -0.3392482 -0.2248342 0.2539041 -0.940735 
-0.1403269 -0.2097122 -0.2583443 -0.2363318 -0.6744097 -0.6995134 
-0.1491126 -0.2159871 -0.2498839 -0.2169756 -0.6324555 -0.743587 
-0.1424899 -0.1999795 -0.2676199 -0.2797965 -0.7024435 -0.6544365 
-0.4051401 -0.2637264 -0.09640668 -0.4972548 -0.8603519 0.1119482 
-0.4009711 -0.2643315 -0.0815571 -0.486762 -0.8720475 0.05095226 
-0.415011 -0.2569143 -0.08670838 -0.5120576 -0.8552215 0.07995818 
-0.3926153 -0.2703693 -0.09331486 -0.4844323 -0.8679199 0.1097291 
-0.6876034 -0.03163587 0.04090738 -0.7482308 0.01452936 -0.6632795 
-0.6959819 -0.02924051 0.04980059 -0.6983321 0.09220425 -0.7098104 
-0.7033847 -0.03401694 0.05607511 -0.6404706 0.0002497211 -0.7679827 
-0.7082862 -0.04593181 0.05982693 -0.6121633 -0.03703007 -0.7898638 
-0.7885243 -0.03587748 0.1076937 -0.4421065 0.2402702 -0.8641829 
-0.7754421 -0.03360838 0.1020719 -0.4312253 0.1766521 -0.8847818 
-0.8004285 -0.03414916 0.114518 -0.4774091 0.3052516 -0.8239552 
-0.7809415 -0.02403169 0.1076972 -0.4481185 0.3547709 -0.8205653 
-0.7915962 -0.02565401 0.1126572 -0.467592 0.377916 -0.7990853 
-0.5790415 -0.1951327 0.1657906 0.1997537 -0.9031076 0.3801251 
-0.5734336 -0.1977902 0.1529186 0.1369604 -0.9835305 0.1179391 
-0.9053646 -0.1462202 0.2764483 -0.2497889 0.2181327 0.9434107 
0.4368257 0.1537171 0.3369474 0.2766289 0.3496349 0.8951156 
0.2449072 0.2788095 -0.05191667 0.4985463 0.4840919 -0.7191012 
-0.3523039 0.3263595 0.06149951 0.2211315 0.8194157 0.5288277 
0.5053657 -0.3340923 0.07412061 0.09956038 -0.2572031 -0.961215 
0.4293061 0.2260544 0.1132408 0.270404 -0.8057123 0.5269814 
0.4403716 0.2314419 0.1160632 0.1956188 -0.8131694 0.5481688 
0.4679106 -0.2317207 0.2247603 0.6001642 0.146066 0.7864272 
0.4714816 -0.2198832 0.2196877 0.6156558 0.1575447 0.7721059 
0.4609734 -0.2234054 0.2286609 0.6021217 0.1377846 0.7864255 
-0.6200675 0.1621503 -0.09143931 -0.7028689 -0.0041157 -0.7113075 
-0.6227714 0.1752908 -0.08885968 -0.7566414 -0.02998877 -0.653142 
0.3255301 -0.4018331 -0.1033526 -0.2169252 -0.6940215 0.6864967 
-0.3394778 0.3359528 0.01547568 0.3694473 0.9288775 0.02636977 
0.1739659 -0.2955081 0.00527949 -0.168164 -0.9834841 0.06693182 
0.1877413 -0.2991863 -0.00209337 -0.2411231 -0.9495321 0.2006203 
-0.365641 -0.1387911 0.179113 -0.07863573 -0.3367034 0.9383215 
-0.3498883 -0.1539602 0.1739992 -0.1106176 -0.4896426 0.864878 
